VERSION .7
FIELDS x y z
SIZE 4 4 4
TYPE F F F
COUNT 1 1 1
WIDTH 839
HEIGHT 1
VIEWPOINT 0 0 0 1 0 0 0
POINTS 839
DATA ascii
2535.9926931864848 1.6453335774713196e-05 -180.3042008752891 
2460.6925364748095 1.6211643924179953e-05 -145.05461339129397 
2523.2270346482037 1.5853579498070758e-05 -103.87365442132614 
2544.9999849585156 93.63466793452517 -163.6099276117866 
2448.401888776767 1.5614416952303145e-05 -68.9734253882798 
2510.6486024836527 1.5262618035194464e-05 -28.564069648410623 
2544.999985766749 63.040181314601796 -55.22179527791195 
2498.2514333662652 1.468017217121087e-05 45.66025707024801 
2544.999986552649 33.29101508374879 50.1715916519006 
2544.9999856699983 178.60016407363582 -60.5019562343432 
2486.0297890559964 1.4105972695688251e-05 118.8336817234831 
2544.9999873172474 4.3482645016365495 152.70806232951327 
2544.9999864654746 147.07175599663606 46.0779512514473 
2473.978145394823 1.3539762221626006e-05 190.98927854833528 
2534.5687743552417 1.3261306776257697e-05 228.59781935213869 
2544.999987239299 116.40145130537076 149.75709130104133 
2462.091181930866 1.2981287909497041e-05 262.15890215248146 
2522.4134364631095 1.2708418580587022e-05 299.08016337721074 
2544.99998799246 86.5502025998112 250.66746132682238 
2450.3637721293517 1.2430308743205387e-05 332.37324612317934 
2510.4203382775177 1.211261042044498e-05 368.6217657506486 
2544.999988725881 57.481263641773694 348.9332798004789 
2544.999987919371 199.89741758304808 248.46975332705915 
2498.5844624090855 1.1574253221624531e-05 437.25171929038606 
2544.999989440439 29.16002160539483 444.6715533202823 
2544.9999886618484 169.1157684949285 347.8557653497828 
2486.9009695118793 1.1042826372431591e-05 504.99808496965306 
2544.9999901369542 1.553843779748604 537.992594823811 
2544.999989385143 139.1293943633691 444.67403949180516 
2475.3651898710714 1.051811887009535e-05 571.8879399828243 
2533.889086696693 1.027068356052041e-05 605.716315691413 
2544.9999900900957 109.90347366748847 539.0370054700325 
2463.972615552748 9.999923349823803e-06 637.9474234427698 
2522.247310411932 9.757402949617244e-06 671.1722300841193 
2544.9999907774973 81.40515492141094 631.0507322660533 
2452.7188929541094 9.488046089245472e-06 703.2017795782212 
2510.7466197895137 9.2503405539901e-06 735.8348900102937 
2544.999991448097 53.603418591895206 720.8153739585073 
2544.999990736541 190.96130495625948 632.9851764884106 
2499.3827452207142 8.749310836719815e-06 799.728301354965 
2544.999992102602 26.468950457645406 808.4255786132549 
2544.9999914154137 161.5488637376593 723.7700219652979 
2488.1515593005497 8.203834113373887e-06 862.8756706323334 
2544.9886785172343 7.9790997915552e-06 893.9487257475175 
2544.9999920779137 132.8457607567907 812.3654142844371 
2477.049070345964 7.714328603469767e-06 925.2994407496735 
2533.651373352924 7.49403170630103e-06 955.8280119088886 
2544.9999927247245 104.82242391082673 898.8626311050075 
2466.0714164681053 7.230328264995478e-06 987.021325356106 
2522.4408149176656 7.014386937953532e-06 1017.0155113534547 
2544.9999933564914 77.45086774805895 983.3480527070569 
2455.2148597289397 6.751666660420597e-06 1048.0623410169737 
2511.353210247683 6.5400017774663866e-06 1077.5319261693667 
2544.9999939738254 50.704587749967686 1065.9034883018726 
2544.999993346347 183.40994976166348 989.2473727016159 
2500.3848861816473 6.070719791750889e-06 1137.397304560122 
2544.9999945773075 24.5584629424593 1146.6064766334907 
2544.999993971257 155.13976860336152 1072.7336656857037 
2489.532284123836 5.606390004686546e-06 1196.631069427352 
2544.5595054354994 5.355734174372628e-06 1224.7452724821064 
2544.9999945820714 127.50725264705216 1154.3368329982204 
2478.7919550658726 5.146862349647563e-06 1255.2520455423087 
2533.598577135822 4.900166459265165e-06 1282.8811809980284 
2544.9999951793525 100.48699821532136 1234.1318956955693 
2468.160554874663 4.641698069463018e-06 1313.2784854268102 
2522.748162976324 4.449190782906953e-06 1340.4309311369016 
2544.9999957636314 74.05489757277792 1312.19004771347 
2457.6348396957787 4.191353582427837e-06 1370.7280937920855 
2512.0049719110316 4.002671630587429e-06 1397.4119783497817 
2544.999996335416 48.188056601056815 1388.5788989856105 
2447.211661800217 3.74539740732871e-06 1427.6180511816701 
2501.365809967793 3.5604771255748346e-06 1453.8412632157747 
2544.9999968951865 22.86471865765361 1463.3627003004863 
2490.8275761248565 3.1224763006321155e-06 1509.7352333123094 
2544.1566760893447 2.893398232117761e-06 1535.2366856253393 
2480.3872583806597 2.6885481929639354e-06 1565.109864060657 
2533.507891820511 2.4630244297441095e-06 1590.1761325287475 
2470.0419300059248 2.2585645638173446e-06 1619.9806786045801 
2522.955403951126 2.0365414457046427e-06 1644.6187648859259 
2544.99999802651 70.67151040969293 1621.3110810733406 
2459.788745967808 1.8324117263546214e-06 1674.3627667762921 
2512.4963263575833 1.6138355931616388e-06 1698.579472850574 
2544.999998559043 45.53587533803693 1692.3842078051794 
2544.9999980744865 169.82674217599197 1634.6880914672638 
2449.6249395395503 1.3596754797617905e-06 1728.2708032339233 
2502.127851997902 1.194790456793271e-06 1752.072738576715 
2544.999999081085 20.895413616233782 1762.0571901544308 
2544.9999986134026 143.3057913065486 1706.5386144265822 
2491.847249621541 7.792959877406247e-07 1805.112653193471 
2543.5758810934467 5.694209903595038e-07 1828.29417872957 
2544.9999991416375 117.31047482652139 1776.9650894341148 
2481.6518606251475 3.6724577512359247e-07 1857.7129330269472 
2533.18237933144 1.6058856999734417e-07 1880.501470017507 
2544.9999996595843 91.82147528220503 1846.0198513084001 
2464.327819298681 15.946157888437483 1900.0000000147425 
2499.741898300241 52.50961151991578 1899.9999999838024 
2535.327402441346 89.37219790589916 1899.999999951744 
2544.9999997289965 189.0521329935882 1862.194958479226 
2831.560672975548 49.99999995861526 1406.0701989302097 
2715.4305650342785 49.999999987283445 1409.8204355576008 
2767.6637971992677 49.99999975458286 1435.8482099842745 
2819.353338933972 49.99999952422786 1461.614403028745 
2845.0000002309916 121.46417087588452 1436.4962206259565 
2597.9749321383283 50.00000001587432 1413.6647024340268 
2651.1397680061955 49.999999781859515 1439.799029564224 
2703.731502817018 49.99999955025487 1465.6656351586976 
2755.767017550669 49.999999320990355 1491.2725969119524 
2807.262675523337 49.99999909399412 1516.6277477836074 
2844.9999993679985 86.78164610665135 1516.1333233412051 
2586.7916536087655 50.000001162195986 1469.839093558358 
2639.751864798798 50.00000093172457 1495.5395233804065 
2692.1431565700464 50.00000070358146 1520.9823305476343 
2743.9822113127098 50.00000047769936 1546.175321268844 
2795.2852019485786 50.00000025400641 1571.1260672570234 
2844.9999999533406 52.945242161193164 1593.8275792905547 
2358.689241493848 49.999999870862666 1421.7558322347468 
2413.880972675659 49.999999634158485 1448.100647469907 
2575.713219530545 50.000000726418875 1525.4868481053563 
2628.470112913041 50.00000049943537 1550.7604414241569 
2680.662222899353 50.00000027470196 1575.7862986384207 
2731.9808457317786 50.83759745170664 1599.9999991666396 
2769.443982854663 87.09451040301246 1599.9999991531204 
2807.124820844617 123.6081728909121 1599.999999139156 
2236.6524990150706 49.99999989806747 1426.0652624210707 
2292.9442147860964 49.99999965998995 1452.5135142798754 
2348.5657994850408 49.999999424523594 1478.6749086093273 
2403.5370108255347 49.99999919158927 1504.5582417649916 
2564.736497737217 50.00000029464445 1580.6236946824893 
2613.963502276715 58.03415176948056 1599.9999982462828 
2651.37421282535 94.50321229443307 1599.999999023808 
2688.9875526126143 131.22634149481928 1599.999999007689 
2054.6960437846637 50.000000166644895 1403.7411586614107 
2112.8762629512644 49.99999992440735 1430.5940892701415 
2170.3290996446513 49.9999996849383 1457.1441850383421 
2227.0761442706216 49.99999944815045 1483.4008102864923 
2283.1382623043414 49.99999921396375 1509.3730209793953 
2338.535626688027 49.99999898229726 1535.0695786224237 
2393.2877485581394 49.99999875307458 1560.4989634440326 
2569.0510031263207 139.17759507259598 1599.9999980673088 
1927.8039537513187 50.000000193389496 1408.4165868022978 
1987.2480540932524 49.99999994966856 1435.3764436123765 
2045.9259888546799 49.99999970878889 1462.0264540379885 
2103.8605970345784 49.99999947066681 1488.3762674985114 
2161.0739365213212 49.99999923521227 1514.4352101237637 
2217.587319373195 49.99999900234616 1540.2122994816264 
2273.4213452531685 49.99999877198661 1565.7162585381961 
2328.595932370489 50.00000013027966 1590.9555278109046 
2372.1727447923413 73.4596475559656 1599.99999928122 
1798.8740014820532 50.00000021884989 1413.3832288372287 
1859.6511384971436 49.99999997362647 1440.4478272639885 
1919.621212597976 49.99999973132435 1467.1954460690145 
1978.8084080363942 49.99999949185076 1493.6360314390886 
2037.236066840244 49.99999925511838 1519.7791905321592 
2094.9267272790044 49.99999902104173 1545.634207095663 
2151.9021602876037 49.99999878953804 1571.2100562590213 
2208.1834031714898 50.00000014675061 1596.5154174669756 
2248.0847488538593 81.79174581443567 1599.9999983074513 
2285.552414911751 118.91640055186326 1599.9999982870831 
1667.7813653279354 50.00000024279052 1418.6785244182147 
1729.964162423495 49.999999996050974 1445.8452545687774 
1791.2967210811257 49.99999975231003 1472.687754243063 
1851.8046757777984 49.999999511474925 1499.2162784052216 
1911.5127522042885 49.999999273453795 1525.4407263997568 
1970.444809253765 49.99999903815751 1551.3706585243108 
2028.6238778811216 50.000000391724825 1577.0153106216635 
2084.2065411019626 53.49272370620474 1599.9999973331483 
2121.6394477149797 90.60997996956758 1599.9999973125841 
2159.2039714536722 127.96087062986044 1599.9999972911287 
1534.3959435002544 50.00000026496855 1424.3416262440305 
1598.0607636553427 50.00000001669741 1451.6074033930581 
1660.8297140472969 49.999999771507646 1478.5415868303762 
1722.7299935267442 49.99999952930102 1505.154752633493 
1783.7878195715475 49.99999928998204 1531.457103769862 
1844.0284732425848 50.000000639682185 1557.4584865940888 
1903.4763463230338 50.000000405872925 1583.1684118894173 
1955.0598071378627 62.62180107235599 1599.9999963160544 
1992.6490782169826 99.97311749135042 1599.9999962947777 
2030.3531769748151 137.55474277894336 1599.9999962725142 
1332.380527989551 50.00000053820531 1402.7019722616951 
1398.5819177742846 50.00000028512295 1430.4135664181522 
1463.8091566663052 50.00000003531022 1457.7747766505 
1528.0922459984376 49.999999788661626 1484.7969241370083 
1591.4600732828599 49.99999954507439 1511.4909187086278 
1653.9404644022543 50.00000089067362 1537.8672775407863 
1715.5602378551066 50.000000652926246 1563.9361482778504 
1776.3452461073998 50.00000041795829 1589.7073200310247 
1823.1198605986947 72.35305566689294 1599.9999952737526 
1860.9114365765417 109.94344058169008 1599.9999952520602 
1898.8004847361408 147.76067634440187 1599.999995229281 
1192.2956788441174 50.000000557713065 1409.126676654938 
1260.1972860591877 50.000000302989065 1436.9374350910302 
1327.0716888699835 50.00000005162292 1464.3898755377918 
1392.9508045549924 49.99999980350822 1491.49568654617 
1457.8653447907814 49.99999955853764 1518.2661246149196 
1521.8448729333531 50.000000902830834 1544.7120341490854 
1584.9178632545077 50.000000663852006 1570.8438717506951 
1647.1117464980985 50.000000427725354 1596.6717183259593 
1688.1655138661272 82.75233237649445 1599.9999942041036 
1726.2083812988917 120.58716645303957 1599.9999941823098 
1049.3988561374927 50.000000574651494 1416.0534056615516 
1119.0933605523664 50.00000031827676 1443.9585727544813 
1187.704364910755 50.00000006535356 1471.497385780115 
1255.265859134167 49.999999815767296 1498.681914958015 
1321.8105258634687 50.00000115563125 1525.5237754940617 
1387.3698090131502 50.00000091239872 1552.0341544490702 
1451.9739673274603 50.00000067219116 1578.2238251797207 
1511.6639244083008 56.015829635809496 1599.9999931250695 
1549.957598681087 93.88989247216068 1599.9999931047996 
1588.3041443281372 131.97491889333287 1599.9999930832419 
903.5288194666532 50.00000058871956 1423.5306966984185 
975.1142278586904 50.000000330689545 1451.5247776993078 
1045.5563356496286 50.00000007620383 1479.1443783191366 
1114.8913756547777 50.00000141136661 1506.4019638700934 
1183.1541678229055 50.0000011636248 1533.3095260623768 
1250.3781824068255 50.00000091908987 1559.8786001500648 
1316.595611110734 50.00000067765632 1586.120291910258 
1369.5637635469684 67.7066440100698 1599.999991992906 
1408.2370098020765 105.84094655447825 1599.9999919733477 
1446.9434215572533 144.18225893826366 1599.9999919523912 
679.6888400342691 50.00000086305408 1403.137085092687 
754.516093054141 50.000000599596206 1431.6098519024536 
828.0961670729839 50.000000339907274 1459.6865303098093 
900.4693468807536 50.000001670080565 1487.3805249039633 
971.6743009775182 50.000001417553904 1514.704715303094 
1041.7481563369452 50.00000116843057 1541.6714764447252 
1110.7265810914746 50.00000092259961 1568.2927085513693 
1178.64385614722 50.00000067995188 1594.5798599299828 
1223.6082193413354 80.28512430636329 1599.9999908255008 
1262.7224866628394 118.68625647769477 1599.9999908070527 
525.179920789064 50.0000008721554 1411.7883410976283 
602.1822994139038 50.00000060693765 1440.345189997567 
677.8670200401771 50.00000193181313 1468.4972349226864 
752.2771512732588 50.00000167420876 1496.2583370863335 
825.4539956442914 50.00000142022054 1523.641798463977 
897.4371861055542 50.0000011697266 1550.6603952236492 
968.2647701105348 50.000000922608706 1577.326403707002 
1033.8471450544366 55.35300600106257 1599.9999896351642 
1073.4864410437544 93.83794155712894 1599.999989619892 
1113.1080915147754 132.51281727755122 1599.9999896029844 
367.04053250465995 50.000000877359525 1421.1615786362108 
446.3394360746747 50.00000219660342 1449.7943188746954 
524.2455169245263 50.00000193360847 1478.0134881037698 
600.8048601974583 50.00000167445796 1505.8334136990802 
676.0616341452251 50.00000141901728 1533.2678393543752 
750.0581892356927 50.000001167165465 1560.3299547653814 
822.8351524949985 50.00000091877973 1587.0324245557485 
878.6174567987268 69.6883380920699 1599.9999883859864 
918.8594159729109 108.45879781972144 1599.9999883728578 
959.0603348123786 147.41463217757246 1599.9999883579599 
121.8154017935085 50.000001151233846 1402.1820170231758 
205.06458165984805 50.000002464491445 1431.3191455550295 
286.7890979358599 50.00000219576759 1460.0184381597737 
367.0405316087181 50.00000193113465 1488.2953586735148 
445.86825532044895 50.00000167044982 1516.1647214939221 
523.3195506754873 50.0000014135785 1543.6407255885943 
599.4397195409811 50.00000116038609 1570.7369874257588 
674.2721883446889 50.00000091075162 1597.4665718372526 
718.4323337304777 85.18564775987943 1599.9999870913443 
759.3565946428657 124.24931587768788 1599.9999870808815 
39.03407469730337 50.000002460695214 1442.327436328535 
123.32161734765305 50.000002190239684 1471.082657433663 
206.05028730279992 50.00000192398602 1499.4067046986866 
287.27303582129207 50.0000016617887 1527.3148944741915 
367.04053217061846 50.00000140350585 1554.821895415309 
445.4012869863773 50.00000114900104 1581.9417636688695 
511.0833458596653 62.757162261897065 1599.999985752499 
552.878580537968 101.95525075714795 1599.9999857473404 
594.5720189866388 141.32005776036112 1599.9999857401162 
41.061485807820645 50.00000191173058 1511.415513343194 
124.81400235767615 50.000001648048055 1539.350561386179 
207.02705176581821 50.00000138838368 1566.87665236591 
287.75263704761073 50.00000113259557 1594.0082944885576 
338.81360529951235 80.6049188161387 1599.9999843508172 
381.5021795929074 120.11761756521719 1599.999984349699 
43.07043631178021 50.000001367765435 1579.8745083720269 
116.25320113920588 60.279704736287385 1599.999982884021 
160.1143606950509 99.96890468235961 1599.99998289008 
203.8029944475893 139.80473450979298 1599.9999828937139 
2401.1991393026447 50.000009874729585 28.019595866087002 
2262.512470585576 50.00000998743235 22.60479430711075 
2326.3405307270127 50.000009639048585 62.48324289296852 
2389.2916839894087 50.0000103247412 101.72875418100193 
2121.5593065965663 50.000010105804904 16.619099496540002 
2186.919156559169 50.000009752425285 57.03000436602997 
2251.3503396378637 50.00000940469545 96.78769333264972 
2314.8834363602864 50.0000100910529 135.91274180279197 
2377.5478723109 50.00000975408875 174.42493473516424 
1978.172858239158 50.000010229800864 10.078480830955414 
2045.1579471824712 50.00000987124986 51.0385900891597 
2111.1594349658526 50.00000951854054 91.32421108668677 
2176.2099065449793 50.000009171491 130.9568595394021 
2240.340689850179 50.00000985853785 169.95720663451357 
2303.581921057024 50.000009522267646 208.3451253381263 
2365.9626009603985 50.000009191138815 246.13972384459157 
1832.1784704916531 50.00001035938749 2.998461420800595 
1900.887624121142 50.00000999547319 44.525376276720635 
1968.5547910324126 50.000009637609764 85.35547743618008 
2035.21473473293 50.000009285599845 125.51128127866468 
2100.90085213124 50.000008939256986 165.01440675728372 
2165.645242647848 50.0000096270187 203.88561987231424 
2229.4787758522657 50.00000929147245 242.14488057472045 
2292.431149874251 50.00000896107122 279.8113768408957 
2354.5309516219686 50.0000086356531 316.9035667167718 
2415.805710937095 50.000008315064406 353.4392129993239 
1753.9307536038677 50.000010125058 37.50639894714641 
1823.36452794845 50.00000976185038 78.89835502313144 
1891.7313086097693 50.00000940470363 119.59363703376766 
1959.0667417500713 50.00000905342313 159.6148726206984 
2025.4050624844313 50.00000870781696 198.9837828207983 
2090.7791670926044 50.00000836770323 237.721228258657 
2155.2206803778354 50.000009061526725 275.84725156080185 
2218.760021688121 50.00000873188219 313.3811222532204 
2281.426461802036 50.00000840722532 350.3413691246087 
2343.248181750496 50.00000808740333 386.7458205080711 
2404.252325660601 50.0000077722616 422.6116373930663 
1604.1009555401552 50.00001025997699 29.99742541415617 
1675.4083162061384 50.00000989122509 71.96947475280376 
1745.5850346453726 50.00000952875325 113.22135615130173 
1814.6692051789191 50.00000917235684 153.7767729173056 
1882.6973852947222 50.000008821832125 193.6584625884043 
1949.704675385341 50.00000847699357 232.88824686593125 
2015.7247936394106 50.00000813765473 271.4870785096973 
2080.79014587819 50.00000883225857 309.4750844056862 
2144.9318939709133 50.00000850340075 346.87161102634855 
2208.180014784167 50.00000817953514 383.6952573876433 
2270.5633610957775 50.00000786050623 419.9639158030641 
2332.1097163095837 50.00000754616394 455.69480546758405 
2392.845846578164 50.00000723636185 490.904505071775 
1451.2020445886014 50.00001040020106 22.014027245629222 
1524.496564648106 50.00001002569661 64.58531200075868 
1596.5925701329775 50.00000965770414 106.41174737258461 
1667.5308227273981 50.000009296002645 147.51818481860028 
1737.3504083771927 50.00000894038658 187.9284459284845 
1806.0888254781894 50.00000859065403 227.6653764747698 
1873.7820676180854 50.000008246614016 266.7508971217494 
1940.4647012620248 50.00000790808099 305.2060510319716 
2006.169938172543 50.00000860349792 343.0510475958099 
2070.929706316829 50.00000827545682 380.3053084618914 
2134.774710969637 50.00000795241249 416.98750109427874 
2197.7344978030287 50.000007634209396 453.11558000445984 
2259.837509549394 50.00000732069384 488.70682081212726 
2321.1111399600777 50.00000701172212 523.7778532914599 
2381.581784696477 50.00000670715144 558.3446925346439 
1295.0270948365196 50.00001054571294 13.571655318645753 
1370.4295377286198 50.000010165237654 56.762265112661225 
1444.5609892594039 50.00000979151355 99.18208029300513 
1517.46512046095 50.00000942431325 140.8571789989055 
1589.1837729815202 50.000009063417565 181.81253997374824 
1659.7570567792736 50.000008708618225 222.0721011524247 
1729.2234416840047 50.0000083597115 261.6588145683254 
1797.6198432729816 50.00000801650458 300.5946978476386 
1864.9817034703442 50.000007678811016 338.90088253662816 
1931.343065660778 50.000008375072866 376.59765850088115 
1996.736648190823 50.00000804788306 413.7045205327295 
2061.1939077192155 50.00000772569274 450.24020251442107 
2124.745104569812 50.00000740834639 486.22271913319764 
2187.4193614234487 50.00000709569031 521.6694004232968 
2249.2447191871997 50.00000678757897 556.5969252481536 
2310.248189670503 50.0000064838714 591.0213528655331 
2370.4558052809334 50.000006184430276 624.9581527032296 
1135.3574185336502 50.000010696501704 4.68571764744047 
1212.9963932642718 50.00001030982003 48.51673689602194 
1289.286875585833 50.000009930148735 91.54966997754946 
1364.2757134696735 50.000009557244084 133.8119068976057 
1438.0077552679254 50.00000919087597 175.32966275070248 
1510.5259581181044 50.00000883082248 216.12804131462417 
1581.8714894312006 50.00000847687534 256.2310945848694 
1652.083821974346 50.000008128829904 295.66187854910277 
1721.2008230164179 50.00000778649155 334.4425054764979 
1789.258837966312 50.00000744967292 372.59419297416116 
1856.2927682956401 50.00000814681607 410.1373090632833 
1922.3361477406997 50.00000782051029 447.0914193697763 
1987.4212079982299 50.00000749920855 483.47532189877074 
2051.5789464326017 50.0000071827526 519.3070892373362 
2114.839186880541 50.00000687098873 554.6041035815765 
2177.23063750889 50.00000656377051 589.3830906580197 
2238.7809453479204 50.00000626095698 623.6601516930905 
2299.5167477227697 50.00000596240989 657.4507935612442 
2359.4637207887126 50.000005667999176 690.7699572324827 
2418.646625360644 50.00000537759843 723.6320446309564 
1051.97413074325 50.00001045942918 39.86521986358366 
1130.5553318001776 50.00001007357787 83.53196550945904 
1207.7553725812277 50.00000969475059 126.4006920427455 
1283.6223858609287 50.0000093227045 168.4989368110373 
1358.202436350305 50.00000895720768 209.85304925357923 
1431.539633376865 50.00000859803731 250.48825554421273 
1503.676236335073 50.00000824498238 290.4287190849145 
1574.6527534442876 50.00000789783735 329.69759715804685 
1644.5080343061318 50.00000755640485 368.31709401968146 
1713.2793567123717 50.000007220498446 406.30851069280016 
1781.0025081173353 50.00000688993987 443.69229169801747 
1847.7118615504069 50.000007593173905 480.4880679774924 
1913.4404499624084 50.0000072727953 516.7147019964414 
1978.2200301790972 50.000006957265214 552.3903207264989 
2042.0811490078531 50.00000664642812 587.5323560166748 
2105.053202544771 50.00000634013759 622.157577985557 
2167.164492640341 50.00000603824992 656.2821273973377 
2228.442280136236 50.00000574063142 689.9215461841404 
2288.912835088351 50.00000544714658 723.0908062381222 
2348.6014841750443 50.000005157668966 755.8043365874814 
2407.5326554747467 50.000004872076715 788.0760490620587 
887.1264389559092 50.00001061404964 30.824386061374753 
968.1388964199996 50.00001022177821 75.1466433227879 
1047.6850050275443 50.00000983679911 118.64212629812937 
1125.816489792187 50.000009458860404 161.33978787477554 
1202.582811270834 50.000009087715625 203.26730972195855 
1278.0312908861024 50.00000872313285 244.45117258220034 
1352.2072280733737 50.000008364886526 284.91672197579646 
1425.1540098694836 50.00000801276383 324.68822966453627 
1496.9132135074665 50.000007666556485 363.78895119126537 
1567.52470253416 50.00000732607168 402.2411797852592 
1637.026716924338 50.000006991117516 440.0662968990928 
1705.4559576258844 50.00000666151391 477.2848196207997 
1772.8476653128391 50.00000736570564 513.916444230369 
1839.235697461576 50.000007046289284 549.9800918433684 
1904.652594677258 50.00000673172144 585.4939419671773 
1969.1296491800595 50.00000642184659 620.4754733239965 
2032.6969662489 50.000006116520126 654.9414976948738 
2095.3835226978 50.00000581559652 688.9081927039301 
2157.217221990577 50.00000551893663 722.391132716109 
2218.2249462189384 50.000005226411304 755.4053179746952 
2278.4326051519784 50.0000049378923 787.9652020953063 
2337.8651825495294 50.00000465325502 820.0847180242845 
2396.546779917571 50.00000437238123 851.7773025614597 
718.2024301943661 50.00001077367506 21.411182402126542 
801.7963557561093 50.00001037472339 66.41170625812174 
883.8325383372303 50.000009983354175 110.55517198430698 
964.3666369757893 50.00000959929639 153.87204944051427 
1043.4518277695156 50.00000922229083 196.39144652800678 
1121.138943507046 50.00000885209374 238.14118573653832 
1197.4766040356994 50.000008488467756 279.14787561204867 
1272.5113380763441 50.00000813119004 319.4369775345567 
1346.2876971344208 50.000007780041415 359.0328681621677 
1418.8483621004834 50.000007434817235 397.95889786646967 
1490.234243083335 50.00000709531923 436.23744545712816 
1560.4845729732197 50.000006761358236 473.88996946839507 
1629.6369951912438 50.000006432751434 510.93705625765597 
1697.7276454040662 50.000007137940884 547.3984641985558 
1764.791231441844 50.00000681952497 583.2931698699376 
1830.8611021004335 50.00000650595757 618.6394021875913 
1895.9693181026887 50.000006197084986 653.454683681236 
1960.1467157669113 50.000005892757144 687.7558647918563 
2023.4229675754204 50.00000559283308 721.5591570651163 
2085.826639242729 50.00000529717181 754.8801644251712 
2147.385243518733 50.00000500564238 787.7339126579186 
2208.125290944432 50.00000471811563 820.134877222958 
2268.0723377613776 50.00000443446697 852.0970095045504 
2327.2510311610235 50.00000415457998 883.6337616036535 
2385.6851520464406 50.00000387833734 914.7581097655775 
544.9352465091579 50.000010938299965 11.642932529218342 
631.2714378591554 50.000010532400665 57.34558938571263 
715.9516952915692 50.000010134385775 102.15927092834409 
799.0359920632736 50.000009743967894 146.11607442137756 
880.5815749902772 50.00000936087872 189.24663619831517 
960.6431203063898 50.00000898485723 231.5802151486305 
1039.2728790037786 50.000008615654224 273.1447705697319 
1116.5208124757191 50.00000825303323 313.9670348235877 
1192.4347192095993 50.000007896767784 354.07258119876406 
1267.0603532130103 50.00000754664143 393.48588734364694 
1340.4415347969375 50.000007202444976 432.2303946051534 
1412.6202542868105 50.00000686397925 470.3285635786651 
1483.6367691840633 50.00000653105326 507.80192614918633 
1553.529695257159 50.00000620348419 544.6711342802791 
1622.3360913443662 50.00000690971501 580.9560048469889 
1690.0915422303783 50.00000659233774 616.6755663724484 
1756.8302300314372 50.000006279811714 651.8480937369973 
1822.5850077313648 50.0000059719805 686.4911499102996 
1887.3874651665005 50.00000566869312 720.6216207027264 
1951.267991771455 50.000005369805876 754.2557483683158 
2014.2558356794175 50.000005075180525 787.4091632546051 
2076.3791594233435 50.00000478468246 820.096913631306 
2137.6650924655028 50.00000449818617 852.333493819664 
2198.1397807657704 50.00000421556342 884.132870735205 
2257.828433583197 50.000003936696885 915.5085089480767 
2316.7553676910547 50.000003661471055 946.4733943575093 
2374.9440491722826 50.000003389775884 977.0400565697996 
456.29137332654864 50.00001069479458 47.96727376488616 
543.7806461183673 50.00001028986662 93.47446162123197 
629.5730510239919 50.00000989284126 138.09285498748068 
713.7303008989452 50.00000950343019 181.8547298846088 
796.3112845689111 50.00000912136238 224.790884494917 
877.3722291619033 50.00000874637317 266.9307240981407 
956.9668514214773 50.00000837821517 308.30234024184574 
1035.1464988652383 50.00000801664919 348.9325845983294 
1111.96028157626 50.000007661446034 388.84713792014554 
1187.4551953460623 50.000007312387424 428.0705744702682 
1261.676236825485 50.00000696926418 466.62642227034576 
1334.666511283523 50.000006631876204 504.5372194809843 
1406.4673335232937 50.0000063000316 541.8245672014505 
1477.1183224581932 50.00000597354574 578.5091789519929 
1546.65748980953 50.00000565224127 614.610927080148 
1615.1213226901646 50.000006364567525 650.1488853894052 
1682.5448644316784 50.00000605312562 685.1413737407202 
1748.9617840517649 50.00000574637488 719.6059909260707 
1814.404448024923 50.00000544416798 753.5596545308504 
1878.9039846191895 50.0000051463594 787.0186340145588 
1942.4903451104929 50.00000485280907 819.9985827359455 
2005.19236145768 50.00000456338148 852.5145681261065 
2067.037800676239 50.00000427795203 884.5811001340571 
2128.053416130653 50.00000399639248 916.2121580598828 
2188.264995948781 50.000003718583685 947.4212158818591 
2247.697408746522 50.00000344441196 978.2212661760736 
2306.374646837123 50.000003173763616 1008.6248427197579 
2364.319867086724 50.000002906532245 1038.6440418628845 
2421.5554295660572 50.00000264261416 1068.290542746477 
455.7102500535998 50.00001004587193 129.8241519397343 
542.6411090922916 50.00000964989249 174.23838483177224 
627.8966118051021 50.00000926154462 217.79665395148095 
711.5373451739433 50.00000888055274 260.5299140639945 
793.621139745675 50.00000850665219 302.46771163192807 
874.2032271942135 50.000008139591046 343.6382653161281 
953.3363872471155 50.00000777913192 384.06854104259037 
1031.0710848062186 50.000007425041986 423.78432205938225 
1107.455598018791 50.000007077102964 462.8102743700374 
1182.5361379897345 50.00000673510294 501.17000789625763 
1256.3569607658455 50.000006398840014 538.8861336922864 
1328.960472169325 50.000006068124094 575.9803175058696 
1400.3873260090068 50.000005742767826 612.4733299557897 
1470.6765161536596 50.00000542259204 648.3850935734486 
1539.865462235378 50.00000613604789 683.7347260201532 
1607.990093464678 50.00000582573284 718.5405851887112 
1675.0849207083593 50.00000552010988 752.820302610181 
1741.1831108602682 50.00000521902439 786.5908237302192 
1806.316553518273 50.00000492233539 819.8684414054956 
1870.515924397947 50.000004629900104 852.6688283026633 
1933.8107450604075 50.000004341585736 885.0070674141757 
1996.22943920335 50.00000405726223 916.8976808181878 
2057.799385745309 50.00000377680317 948.3546568000761 
2118.5469689158017 50.000003500092134 979.3914754442112 
2178.497625548096 50.000003227009984 1010.0211327965253 
2237.675889756721 50.00000295744667 1040.2561636908895 
2296.105435168519 50.00000269129396 1070.1086633255768 
2353.8091148636963 50.00000242844726 1099.5903076697168 
2410.808999172076 50.00000216880653 1128.7123727739495 
455.1366453653982 50.00000940534392 210.621964156785 
541.5161723347301 50.00000901811836 253.9675237938891 
626.2414470312196 50.000008638260624 296.4889912002018 
709.3719577737461 50.00000826550604 338.2160481650644 
790.9645020330249 50.00000789959904 379.17703470952256 
871.0733393907935 50.00000754030134 419.3990253712718 
949.750334231443 50.00000718737738 458.90790036921317 
1027.0450889625704 50.000006840608876 497.72841204481756 
1103.005068491152 50.00000649978392 535.884246942715 
1177.6757166190287 50.0000061646997 573.3980838614725 
1251.100564964484 50.000005835160664 610.2916481772099 
1323.3213349652056 50.00000551098128 646.5857627169403 
1394.378033471322 50.00000519198511 682.3003954353408 
1464.3090417010808 50.000005906616025 717.4547032200612 
1533.151202166312 50.00000559747514 752.0670774921164 
1600.9398934729988 50.00000529302088 786.1551781445537 
1667.7091073963584 50.000004993104085 819.7359742307353 
1733.4915179940444 50.000004697577424 852.8257778744373 
1798.3185473079602 50.00000440630083 885.4402770403071 
1862.2204272270706 50.0000041191397 917.594566389911 
1925.2262577718507 50.00000383596398 949.3031763533386 
1987.364062040996 50.00000355664906 980.5801005363705 
2048.6608380427565 50.00000328107308 1011.4388215741155 
2109.142607616538 50.00000300912143 1041.892335533657 
2168.8344626350786 50.00000274068225 1071.9531749606413 
2227.7606086634764 50.00000247564458 1101.6334306577028 
2285.9444062384287 50.000002213907464 1130.9447722762025 
2343.4084099192405 50.000001955369044 1159.8984677968738 
2400.174405251248 50.000001699932 1188.505401969514 
454.5703285879822 50.00000877295679 290.3932030920687 
540.405388933058 50.00000839429231 332.6935531404097 
624.606906909713 50.000008022742804 374.20076015383347 
707.2332983971073 50.00000765804907 414.9432791053596 
788.3403520864968 50.000007299969184 454.94828688058806 
867.9813779971382 50.00000694827031 494.2417545542885 
946.2073460778943 50.00000660272872 532.8485148427408 
1023.0670156594188 50.00000626313249 570.792325103987 
1098.6070564551937 50.000005929277904 608.0959262258307 
1172.8721617494307 50.00000560096851 644.7810977120134 
1245.9051543554497 50.00000527801967 680.8687092505943 
1317.747085878891 50.00000496025041 716.3787690245495 
1388.4373290639946 50.00000567610641 751.3304681032319 
1458.0136679571906 50.000005368186066 785.7422265391992 
1526.5123755473733 50.00000506495053 819.6317278363681 
1593.9682936539762 50.00000476624791 853.0159600472653 
1660.414904576372 50.00000447192906 885.9112500937599 
1725.8843991762615 50.00000418185573 918.3332969057824 
1790.40774096099 50.000003895893315 950.2972026142679 
1854.0147264405682 50.00000361390812 981.8175019310365 
1916.7340420101586 50.000003335777365 1012.9081898381246 
1978.5933175906112 50.000003061379175 1043.5827476997797 
2039.6191772420007 50.000002790598955 1073.8541679016898 
2099.837286949068 50.00000252332211 1103.73497711426 
2159.272399762689 50.00000225944132 1133.237258269537 
2217.9483984679764 50.000001998851076 1162.3726713348042 
2275.888335937203 50.00000174145225 1191.152472959825 
2333.1144733143096 50.00000148714662 1219.587535069178 
2389.6483161672877 50.00000123584141 1247.6883624659813 
454.0110770647402 50.00000814845589 369.1692321004057 
539.308327408814 50.00000777817331 410.447053618107 
622.9923639483527 50.0000074147556 450.96179399324774 
705.1205554042226 50.00000705795446 490.7407255352591 
785.74770512019 50.00000670753798 529.8099034335546 
864.9261952880988 50.0000063632815 568.1942342218908 
942.7061215979788 50.00000602497221 605.9175396983114 
1019.1354190478733 50.00000569240274 643.0026166494281 
1094.2599795843912 50.000005365379366 679.4712926975089 
1168.1237621875234 50.00000504371201 715.3444785616152 
1240.7688959610991 50.000004727222404 750.642216999212 
1312.235776014063 50.00000544435534 785.3837277806742 
1382.563156995432 50.000005137707376 819.5874542788142 
1451.7882336962775 50.000004835739674 853.2710984630362 
1519.9467238640455 50.00000453829762 886.4516624014059 
1587.0729424922738 50.00000424523569 919.145482987939 
1653.1998723798424 50.00000395641382 951.3682654454078 
1718.3592305237735 50.00000367169196 983.1351148508948 
1782.5815306311579 50.000003390943675 1014.4605658196542 
1845.8961420136898 50.00000311404074 1045.3586104723336 
1908.3313451080558 50.00000284086309 1075.842724801039 
1969.9143838469631 50.00000257129523 1105.9258935409102 
2030.671515088693 50.00000230522346 1135.6206336459172 
2090.6280552975422 50.000002042537744 1164.9390164601664 
2149.8084246533435 50.00000178313712 1193.8926886693062 
2208.236188755208 50.000001526917 1222.4928921104333 
2265.934098072663 50.00000127378189 1250.7504825131955 
2322.9241252863617 50.00000102363629 1278.6759472395966 
2379.2275006504274 50.00000077639015 1306.2794220851852 
453.4586757864495 50.00000753160657 446.9803373263021 
538.2245710084121 50.000007169527635 487.2575623581797 
621.3972119345144 50.00000681406982 526.8009141924504 
703.0329445097486 50.00000646499757 565.6365247276958 
783.1856093366846 50.00000612208805 603.789367128144 
861.9066817557209 50.000005785122994 641.2833206612991 
939.2454026762416 50.000005453899576 678.1412312557168 
1015.2489008646207 50.00000512821771 714.3849681056108 
1089.9623073340977 50.00000480788913 750.0354766207925 
1163.4288624265473 50.00000449273375 785.1128279949917 
1235.6900161263452 50.00000418257787 819.6362656425499 
1306.78552137097 50.00000490587445 853.6242478567151 
1376.7535252113744 50.0000046052246 887.0944921628038 
1445.6306472010656 50.00000430909495 920.0640083819353 
1513.4520601693675 50.00000401733905 952.5491381786042 
1580.251562610796 50.000003729814125 984.5655880385161 
1646.06164747994 50.000003446383744 1016.128461121496 
1710.913566943961 50.00000316691785 1047.252287244116 
1774.837393368431 50.00000289129002 1077.9510511196218 
1837.8620767910215 50.00000261937748 1108.238218972972 
1900.0154991181084 50.00000235106563 1138.1267636397547 
1961.3245252616093 50.000002086240784 1167.629188249588 
2021.8150514170693 50.00000182479562 1196.7575485870066 
2081.5120506691173 50.000001566622814 1225.5234742160014 
2140.439616096738 50.00000131162142 1253.938188448019 
2198.621001538234 50.00000105969593 1282.0125272274045 
2256.078660164234 50.00000081075268 1309.7569570029782 
2312.834280996478 50.000000564697075 1337.181591649477 
2368.908823500373 50.00000032144362 1364.296208498109 
452.91291704105925 50.00000692217418 523.8557770373809 
537.1537170314582 50.00000656812608 563.1536204813115 
619.8208649682174 50.000006220465366 601.7459764909104 
700.9697075444224 50.00000587896557 639.6578770067699 
780.6531444389502 50.000005543409316 676.9132511632015 
858.921764391278 50.00000521358925 713.5349866746988 
935.8239723404927 50.00000488930982 749.5449871926971 
1011.4061083068991 50.00000457037913 784.9642259386228 
1085.7125586363504 50.000004256615284 819.8127958928799 
1158.7858601748721 50.00000394784638 854.109956795789 
1230.666797145329 50.000004672521754 887.8741783269998 
1301.3944957079243 50.00000437324525 921.1231848936782 
1371.0065053378894 50.00000407847983 953.8739891670857 
1439.538882549829 50.00000378808181 986.1429319851086 
1507.0262659506257 50.00000350190385 1017.9457156904887 
1573.5019475327872 50.00000321981406 1049.2974363047701 
1638.9979397565803 50.00000294167876 1080.212613803445 
1703.5450387095898 50.00000266737152 1110.7052206224735 
1767.1728836100165 50.00000239677229 1140.7887085163084 
1829.9100128995797 50.000002129762834 1170.476033878308 
1891.783917153225 50.00000186623038 1199.7796816260425 
1952.8210890157288 50.00000160606669 1228.7116877462258 
2013.047070359648 50.00000134916627 1257.283660587012 
2072.486496844697 50.00000109542725 1285.506800978871 
2131.1631400454503 50.00000084475414 1313.3919212593364 
2189.099947302186 50.00000059705144 1340.9494632714595 
2246.3190794385623 50.00000035222638 1368.1895154007916 
2302.8419464795725 50.00000011019438 1395.121828711092 
452.3736000819363 50.00000631993498 599.8238283537789 
536.0953761943338 50.000005973753105 638.1628182030304 
618.2627565456924 50.000005633729415 675.8239144642289 
698.9301112810476 50.000005299647455 712.8310878669308 
778.1494202192375 50.00000497129713 749.2072599219705 
855.9704050557348 50.00000464848108 784.9743610229716 
932.4406529309263 50.00000433100922 820.153384754783 
1007.6057320158461 50.00000401869693 854.7644386953098 
1081.5092997117272 50.00000371137321 888.8267919727386 
1154.1932032435216 50.00000443748468 922.3589189581617 
1225.6975777596426 50.000004139636985 955.3785444806135 
1296.0609308255289 50.00000384629311 987.9026778289654 
1365.320229217159 50.00000355730481 1019.9476530014003 
1433.510976746014 50.000003272527465 1051.5291623964595 
1500.667288151143 50.000002991828296 1082.6622893005297 
1566.8219586035707 50.000002715075425 1113.3615384481905 
1632.006529125254 50.0000024421397 1143.6408647881894 
1696.2513482012719 50.00000217290108 1173.513700577506 
1759.5856298424737 50.0000019072404 1202.9929809165242 
1822.037508336135 50.00000164504672 1232.0911678296961 
1883.6340899042657 50.0000013862109 1260.8202729882055 
1944.4015014727029 50.000001130626515 1289.1918791638927 
2004.3649367390944 50.00000087819444 1317.2171604971 
2063.5486997140383 50.00000062881463 1344.906901655017 
2121.976245896937 50.00000038239523 1372.2715159515164 
2179.6702212365017 50.00000013884255 1399.3210624943813 
451.84053081346883 50.00000572467252 674.9118315347669 
535.0491720268824 50.00000538619679 712.311837593456 
616.7223386903615 50.000005053655514 749.0607808405484 
696.9134463209252 50.000004726842235 785.1816079238806 
775.6735752202517 50.000004405555956 820.6962676300673 
853.0515989333012 50.00000408960568 855.6257658585191 
929.0943043621323 50.000003778809514 889.9902170262476 
1003.8465041617033 50.0000034729901 923.8088921715957 
1077.3511412074895 50.000004200599506 957.1002631503884 
1149.6493903794944 50.00000390423884 989.882048268039 
1220.7807463042814 50.000003612371074 1022.1712467376947 
1290.7831133406225 50.000003324848876 1053.9841792672205 
1359.6928862894842 50.000003041528544 1085.3365220941473 
1427.5450269891157 50.00000276227456 1116.2433397779614 
1494.3731363380703 50.000002486953235 1146.7191160371563 
1560.2095220625893 50.00000221543996 1176.7777827664254 
1625.0852625200805 50.00000194761196 1206.4327473588114 
1689.0302668077607 50.000001683351 1235.6969184479185 
1752.0733314249583 50.0000014225443 1264.5827301765066 
1814.2421937186468 50.00000116508272 1293.1021650896978 
1875.5635823245202 50.00000091086349 1321.2667757436238 
1936.0632648000915 50.00000065978111 1349.0877051135863 
1995.7660926317822 50.000000411740984 1376.575705879589 
451.31352149293616 50.000005136177606 749.1462319726106 
534.0147403001633 50.00000480525068 785.6264931348319 
615.1990811283358 50.00000448004357 821.4817866999206 
694.9190260370515 50.000004160354365 856.7340708286292 
773.2247754642581 50.00000384599389 891.4043550521856 
850.1643730630526 50.0000035367766 925.51275226806 
925.783822472456 50.00000323252789 959.0785273783481 
1000.12719582315 50.000003961696166 992.1201419779454 
1073.2367393568725 50.00000366688255 1024.6553003920912 
1145.1529645550636 50.00000337655092 1056.7009845801276 
1215.914741444707 50.000003090553946 1088.2734950489908 
1285.5593823108852 50.00000280874792 1119.3884852217057 
1354.1227211034015 50.0000025309937 1150.0609945243841 
1421.6391880785827 50.00000225716212 1180.3054794902446 
1488.1418800076453 50.00000198712405 1210.1358430186147 
1553.6626262570117 50.0000017207567 1239.5654619160791 
1618.2320510221666 50.00000145794729 1268.6072128369992 
1681.8796319749458 50.00000119857759 1297.273496731642 
1744.6337555642958 50.00000094254028 1325.576261901837 
1806.5217691924108 50.00000068972986 1353.5270257565876 
1867.5700304715128 50.00000044004719 1381.1368953530873 
450.7923904476738 50.000004554246516 822.5526200333147 
532.9917284833887 50.00000423071742 858.1317702104088 
613.6924705057645 50.00000391269987 893.1113386844991 
692.9461855706768 50.0000035999974 927.5123292672042 
770.8022132460301 50.00000329242903 961.3548443449936 
847.3077849439837 50.000002989814675 994.6581340382081 
922.5081374554934 50.0000026919879 1027.440642203183 
996.4466184641783 50.00000342740532 1059.7200486841407 
1069.164789402345 50.00000313867349 1091.5133130053168 
1140.702514013462 50.00000285425995 1122.8367072431115 
1211.0980492880522 50.00000257402644 1153.705854893809 
1280.3881269750427 50.00000229783109 1184.1357634082574 
1348.6080309464696 50.000002025543836 1214.1408555517341 
1415.7916699430011 50.00000175703735 1243.734998894095 
1481.9716460199834 50.00000149218795 1272.9315335596598 
1547.179318988724 50.000001230880116 1301.7432983562094 
1611.4448671248915 50.00000097300017 1330.182655393187 
1674.7973443950373 50.00000071843806 1358.2615132907745 
1737.2647344331972 50.000000467089194 1385.9913490737827 
450.2769618065922 50.00000397868189 895.1557688743451 
531.9797952283034 50.000003662406925 929.8518616491201 
612.2020096455117 50.000003351437044 963.9730743387108 
690.9942808780502 50.00000304558671 997.5394891602482 
768.4051059858753 50.00000274467948 1030.5703321758315 
844.4809212091354 50.000002448544365 1063.0840197490324 
919.2662115484636 50.00000318563889 1095.0982012144937 
992.8036174826188 50.00000289856871 1126.6298029061963 
1065.1340269420107 50.0000026158059 1157.6950614117159 
1136.2966695874065 50.00000233720493 1188.3095627066573 
1206.329201344939 50.00000206262939 1218.488274967693 
1275.2677846019842 50.00000179194558 1248.2455801757496 
1343.1471635897497 50.000001525026164 1277.5953038252514 
1410.0007352873613 50.000001261751095 1306.55074287124 
1475.8606161559396 50.000001002002136 1335.1246920358062 
1540.757704987083 50.00000074566469 1363.329468585829 
1604.7217421283121 50.000000492628715 1391.176935685372 
449.7670652452007 50.00000340929546 966.9796703605812 
530.9786098793493 50.000003100132744 1000.8102024421028 
610.7272168408267 50.00000279607593 1034.0898956905667 
689.0626878243502 50.000002496945854 1066.8379421690524 
766.0326951391617 50.00000220257243 1099.0727212094534 
841.6828955262763 50.000002941414095 1130.811842482336 
916.0570408947965 50.000002656075594 1162.0721903442222 
989.1970738499622 50.00000237502718 1192.8699574583216 
1061.1432254475812 50.00000209812424 1223.2206841799202 
1131.934102874664 50.00000182522854 1253.1392916331197 
1201.6067725889748 50.0000015562091 1282.6401135432147 
1270.196838442499 50.00000129093951 1311.7369261515628 
1337.7385151394333 50.00000102929607 1340.4429763470498 
1404.2646973516225 50.00000077116147 1368.77100813767 
1469.807024789091 50.000000516422915 1396.7332875760608 
449.2625357433303 50.0000028459026 1038.0475691916167 
529.9878520081002 50.00000254371571 1071.0295027393222 
609.2676251838316 50.00000224643736 1103.484001177862 
687.1508013220673 50.00000195390203 1135.429396607567 
763.684244302493 50.00000269455995 1166.8832492552365 
838.9128507514611 50.00000241102316 1197.862392121051 
912.8796492738711 50.000002131756446 1228.3829649481136 
985.6259018215842 50.00000185661702 1258.4604538411022 
1057.191194646477 50.00000158547027 1288.1097245902356 
1127.613524500599 50.000001318178874 1317.3450547170746 
1196.9293796083261 50.00000105461913 1346.1801635799607 
1265.1738157777768 50.00000079466918 1374.6282406755126 
448.7632133548004 50.00000228832505 1108.381995345956 
529.0072109705397 50.00000199297847 1140.531779227409 
607.8227819267763 50.000001702353984 1172.176916016179 
685.2580345112128 50.0000014162888 1203.334906853327 
761.3590416523207 50.00000216324224 1234.0225209984815 
836.1699527582687 50.00000188582908 1264.2558380749215 
909.7330900952425 50.00000161252501 1294.0502799551073 
982.0890475186579 50.00000134318998 1323.4206482868003 
1053.2767789806062 50.00000107769483 1352.381155940037 
1123.333682462683 50.000000815911335 1380.9454572864597 
448.26894298834577 50.000001736388185 1178.004794940699 
528.0363854858379 50.000001447755494 1209.338384983132 
606.3922478741702 50.00000116365936 1240.189521099208 
683.3838171037264 50.000001912561856 1270.5749005651633 
759.0563938672235 50.00000163707682 1300.5105302742286 
833.4533927021043 50.000001365678145 1330.0117588992084 
906.6164443545676 50.000001098228495 1359.0933145842205 
978.585487576951 50.000000834596904 1387.7693365765872 
447.77957419912036 50.00000118992375 1246.9371595988273 
527.0750832354074 50.00000090787944 1277.4700378907955 
604.9755959105651 50.000001658810106 1307.5420797456372 
681.5275981407231 50.000001385330506 1337.1692084787192 
756.7756286571785 50.0000011159118 1366.3666891808052 
830.7623851460658 50.00000085042029 1395.1491665522576 
447.2949609902007 50.000000648770765 1315.1996544102503 
526.1230195692833 50.00000140181146 1344.9468469443418 
603.572414022603 50.0000011304146 1374.2542670100624 
446.8149606933266 50.000001141388566 1382.812243814199 
