VERSION .7
FIELDS x y z
SIZE 4 4 4
TYPE F F F
COUNT 1 1 1
WIDTH 1072
HEIGHT 1
VIEWPOINT 0 0 0 1 0 0 0
POINTS 1072
DATA ascii
-1304.41300147 -131.419051898 6136.78068193 
-1313.36668027 -131.243672979 6126.30821381 
-1322.29657342 -131.069165478 6115.86387163 
-1331.20283104 -130.895524841 6105.4474786 
-1340.08560217 -130.722746551 6095.05885919 
-1348.94503474 -130.550826126 6084.69783918 
-1357.78127565 -130.379759122 6074.36424557 
-1366.59447072 -130.209541126 6064.05790664 
-1375.38476473 -130.040167762 6053.77865189 
-1384.15230142 -129.87163469 6043.52631203 
-1392.89722352 -129.7039376 6033.30071901 
-1401.61967271 -129.53707222 6023.10170596 
-1410.31978969 -129.371034309 6012.92910721 
-1418.99771415 -129.205819661 6002.78275826 
-1427.65358481 -129.041424101 5992.66249577 
-1436.28753938 -128.877843487 5982.56815757 
-1444.89971463 -128.71507371 5972.49958263 
-1453.49024634 -128.553110694 5962.45661104 
-1462.05926937 -128.391950392 5952.43908404 
-1470.60691761 -128.23158879 5942.44684395 
-1479.13332404 -128.072021907 5932.47973422 
-1487.6386207 -127.913245788 5922.53759937 
-1496.12293871 -127.755256514 5912.62028501 
-1504.58640831 -127.598050193 5902.72763782 
-143.748233972 -143.774729912 7486.50470841 
-156.506823291 -143.492707274 7471.55771061 
-169.215503156 -143.212230515 7456.66951653 
-181.874644521 -142.933288846 7441.83968964 
-194.484614835 -142.655871585 7427.06779753 
-207.045778092 -142.379968151 7412.35341186 
-219.558494867 -142.105568065 7397.69610833 
-232.023122357 -141.83266095 7383.0954666 
-244.440014422 -141.561236529 7368.55107025 
-256.809521627 -141.29128462 7354.06250677 
-269.131991275 -141.022795141 7339.62936747 
-281.407767452 -140.755758106 7325.25124744 
-293.63719106 -140.490163622 7310.92774554 
-305.820599857 -140.226001892 7296.65846431 
-317.958328493 -139.963263209 7282.44300997 
-330.050708546 -139.701937961 7268.28099235 
-342.098068559 -139.442016624 7254.17202484 
-354.100734073 -139.183489765 7240.11572437 
-366.059027666 -138.926348037 7226.11171138 
-377.973268981 -138.670582184 7212.15960974 
-389.843774768 -138.416183033 7198.25904673 
-401.670858909 -138.1631415 7184.40965302 
-413.454832458 -137.911448582 7170.61106259 
-425.196003668 -137.661095363 7156.86291274 
-436.894678026 -137.412073006 7143.16484401 
-448.551158287 -137.164372758 7129.51650016 
-460.165744498 -136.917985947 7115.91752814 
-471.738734036 -136.672903979 7102.36757804 
-483.270421635 -136.42911834 7088.86630308 
-494.761099415 -136.186620594 7075.41335953 
-506.211056914 -135.945402382 7062.00840672 
-517.620581116 -135.705455421 7048.65110697 
-528.98995648 -135.466771505 7035.34112559 
-540.319464968 -135.229342501 7022.07813083 
-551.609386072 -134.99316035 7008.86179383 
-562.859996845 -134.758217066 6995.69178861 
-574.071571924 -134.524504735 6982.56779205 
-585.24438356 -134.292015515 6969.48948382 
-596.378701643 -134.060741635 6956.45654637 
-607.474793728 -133.830675393 6943.46866492 
-618.532925063 -133.601809155 6930.52552738 
-629.553358612 -133.374135357 6917.62682436 
-640.53635508 -133.147646503 6904.77224914 
-651.482172941 -132.922335161 6891.96149762 
-662.391068459 -132.698193968 6879.19426829 
-673.263295714 -132.475215625 6866.47026222 
-684.099106626 -132.253392897 6853.78918303 
-694.898750977 -132.032718616 6841.15073685 
-705.662476436 -131.813185673 6828.5546323 
-716.39052858 -131.594787025 6816.00058046 
-727.08315092 -131.377515689 6803.48829486 
-737.74058492 -131.161364744 6791.0174914 
-748.36307002 -130.94632733 6778.58788841 
-758.95084366 -130.732396647 6766.19920655 
-769.504141297 -130.519565953 6753.85116881 
-780.023196431 -130.307828566 6741.5435005 
-790.508240623 -130.097177861 6729.2759292 
-800.959503517 -129.887607272 6717.04818477 
-811.377212859 -129.67911029 6704.85999926 
-821.76159452 -129.471680459 6692.71110698 
-832.112872514 -129.265311383 6680.60124439 
-842.431269015 -129.059996718 6668.53015013 
-852.717004384 -128.855730176 6656.49756498 
-862.970297179 -128.652505523 6644.50323183 
-873.191364181 -128.450316578 6632.54689567 
-883.38042041 -128.249157213 6620.62830357 
-893.537679143 -128.049021352 6608.74720463 
-903.663351933 -127.849902972 6596.90335001 
-913.757648627 -127.651796098 6585.09649285 
-923.820777598 -127.45469484 6573.32638983 
-933.852944909 -127.258593266 6561.592795 
-943.854355606 -127.063485583 6549.89546894 
-953.825212888 -126.869366019 6538.23417264 
-963.765718334 -126.67622885 6526.60866898 
-973.676071921 -126.484068399 6515.01872274 
-983.556472041 -126.292879037 6503.46410056 
-993.407115515 -126.102655185 6491.94457093 
-1003.22819761 -125.913391307 6480.45990419 
-1013.01991206 -125.725081915 6469.00987244 
-1022.78245107 -125.537721567 6457.59424963 
-1032.51600535 -125.351304867 6446.21281144 
-1042.2207641 -125.165826461 6434.86533534 
-1051.89691506 -124.981281043 6423.5516005 
-1061.54464451 -124.797663348 6412.27138784 
-1071.16413727 -124.614968158 6401.02447997 
-1080.75557675 -124.433190294 6389.8106612 
-1090.31914493 -124.252324622 6378.62971748 
-1099.85502238 -124.072366052 6367.48143643 
-1109.3633883 -123.893309532 6356.36560732 
-1118.84442051 -123.715150055 6345.282021 
-1128.29829545 -123.537882652 6334.23046995 
-1137.72518824 -123.361502398 6323.21074824 
-1147.12527265 -123.186004405 6312.22265149 
-1156.49872114 -123.011383826 6301.26597689 
-1165.84570486 -122.837635855 6290.34052315 
-1175.16639365 -122.664755724 6279.44609054 
-1184.46095611 -122.492738702 6268.5824808 
-1193.72955952 -122.3215801 6257.74949719 
-1202.97236994 -122.151275263 6246.94694443 
-1212.18955217 -121.981819577 6236.17462872 
-1221.38126979 -121.813208464 6225.43235771 
-1230.54768515 -121.645437381 6214.71994046 
-1239.6889594 -121.478501825 6204.03718749 
-1248.80525249 -121.312397327 6193.3839107 
-1257.8967232 -121.147119453 6182.75992339 
-1266.96352911 -120.982663808 6172.16504025 
-1276.00582667 -120.819026029 6161.59907733 
-1285.02377116 -120.656201789 6151.06185202 
-1294.01751673 -120.494186795 6140.55318308 
-1302.98721641 -120.332976789 6130.07289058 
-1311.93302209 -120.172567546 6119.62079589 
-1320.85508458 -120.012954875 6109.19672171 
-1329.75355359 -119.854134619 6098.80049201 
-1338.62857774 -119.696102652 6088.43193205 
-1347.48030457 -119.538854884 6078.09086834 
-1356.30888057 -119.382387252 6067.77712866 
-1365.11445118 -119.226695731 6057.49054201 
-1373.89716077 -119.071776323 6047.23093863 
-1382.65715272 -118.917625064 6036.99814998 
-1391.39456934 -118.764238021 6026.79200872 
-1400.10955197 -118.61161129 6016.6123487 
-1408.80224091 -118.459741 6006.45900496 
-1417.47277548 -118.308623309 5996.3318137 
-1426.12129403 -118.158254404 5986.2306123 
-1434.74793391 -118.008630505 5976.15523926 
-1443.35283152 -117.859747859 5966.10553425 
-1451.9361223 -117.711602741 5956.08133804 
-1460.49794074 -117.564191458 5946.08249253 
-1469.03842039 -117.417510344 5936.10884073 
-1477.55769386 -117.271555762 5926.16022674 
-1486.05589286 -117.126324102 5916.23649573 
-1494.53314818 -116.981811784 5906.33749398 
-1502.98958969 -116.838015254 5896.46306881 
-117.92521847 -131.046715629 7506.73510869 
-130.768254476 -130.788174149 7491.70828146 
-143.560758921 -130.531052832 7476.74088167 
-156.303108474 -130.275341727 7461.8324668 
-168.995676236 -130.021030978 7446.98259856 
-181.638831783 -129.768110827 7432.19084277 
-194.232941206 -129.516571606 7417.45676937 
-206.778367154 -129.266403744 7402.77995233 
-219.275468877 -129.01759776 7388.15996962 
-231.724602262 -128.770144265 7373.59640317 
-244.126119876 -128.524033959 7359.08883879 
-256.480371004 -128.279257631 7344.63686617 
-268.787701689 -128.035806159 7330.2400788 
-281.04845477 -127.793670506 7315.89807394 
-293.262969917 -127.552841722 7301.61045256 
-305.431583673 -127.313310942 7287.37681933 
-317.554629485 -127.075069384 7273.19678255 
-329.632437746 -126.838108347 7259.06995408 
-341.665335825 -126.602419217 7244.99594938 
-353.653648107 -126.367993455 7230.97438739 
-365.597696023 -126.134822606 7217.00489053 
-377.497798088 -125.902898292 7203.08708464 
-389.354269934 -125.672212215 7189.22059895 
-401.16742434 -125.442756153 7175.40506606 
-412.937571269 -125.214521959 7161.64012185 
-424.665017898 -124.987501565 7147.9254055 
-436.35006865 -124.761686975 7134.26055941 
-447.993025226 -124.537070267 7120.6452292 
-459.594186636 -124.313643593 7107.07906362 
-471.15384923 -124.091399176 7093.56171457 
-482.672306725 -123.870329312 7080.09283705 
-494.14985024 -123.650426366 7066.67208909 
-505.586768323 -123.431682773 7053.29913177 
-516.983346976 -123.214091037 7039.97362913 
-528.339869692 -122.997643732 7026.69524819 
-539.656617476 -122.782333496 7013.46365887 
-550.933868874 -122.568153037 7000.278534 
-562.171900004 -122.355095128 6987.13954925 
-573.37098458 -122.143152605 6974.04638311 
-584.53139394 -121.932318371 6960.99871689 
-595.653397071 -121.722585393 6947.99623463 
-606.737260638 -121.5139467 6935.03862312 
-617.783249004 -121.306395383 6922.12557185 
-628.791624264 -121.099924595 6909.25677298 
-639.76264626 -120.894527553 6896.43192131 
-650.696572614 -120.690197529 6883.65071425 
-661.593658748 -120.48692786 6870.9128518 
-672.454157911 -120.284711938 6858.21803652 
-683.278321197 -120.083543216 6845.56597349 
-694.066397575 -119.883415204 6832.95637029 
-704.81863391 -119.68432147 6820.38893698 
-715.535274985 -119.486255637 6807.86338606 
-726.216563522 -119.289211385 6795.37943246 
-736.862740207 -119.093182449 6782.9367935 
-747.474043713 -118.898162621 6770.53518886 
-758.050710717 -118.704145743 6758.17434057 
-768.592975926 -118.511125715 6745.85397298 
-779.101072095 -118.319096487 6733.57381273 
-789.57523005 -118.128052062 6721.33358873 
-800.015678707 -117.937986498 6709.13303213 
-810.422645095 -117.7488939 6696.97187631 
-820.796354372 -117.560768427 6684.84985682 
-831.137029847 -117.373604287 6672.76671142 
-841.444893002 -117.187395738 6660.72218 
-851.720163505 -117.002137088 6648.71600458 
-861.963059238 -116.817822694 6636.74792927 
-872.173796306 -116.634446959 6624.8177003 
-882.352589064 -116.452004336 6612.92506593 
-892.49965013 -116.270489325 6601.06977647 
-902.615190405 -116.089896473 6589.25158425 
-912.699419305 -115.9102204 6577.47024512 
-922.752543928 -115.73145569 6565.72551232 
-932.774770343 -115.553597054 6554.01714564 
-942.766302759 -115.376639222 6542.34490526 
-952.727343758 -115.200576968 6530.70855331 
-962.65809431 -115.025405108 6519.10785377 
-972.558753787 -114.851118505 6507.54257253 
-982.429519982 -114.677712063 6496.01247732 
-992.270589126 -114.505180729 6484.51733772 
-1002.0821559 -114.333519491 6473.05692512 
-1011.86441346 -114.162723382 6461.6310127 
-1021.61755344 -113.992787475 6450.23937544 
-1031.34176597 -113.823706882 6438.88179008 
-1041.03723971 -113.655476759 6427.5580351 
-1050.70416184 -113.488092299 6416.2678907 
-1060.34271807 -113.321548737 6405.01113881 
-1069.95309271 -113.155841347 6393.78756305 
-1079.53546861 -112.990965441 6382.59694869 
-1089.09002722 -112.826916372 6371.43908268 
-1098.61694858 -112.663689528 6360.31375363 
-1108.11641138 -112.501280338 6349.22075173 
-1117.58859291 -112.339684265 6338.15986881 
-1127.03366912 -112.178896814 6327.13089829 
-1136.45181461 -112.018913521 6316.13363517 
-1145.84320265 -111.859729964 6305.167876 
-1155.20800521 -111.701341753 6294.23341889 
-1164.54639295 -111.543744536 6283.33006345 
-1173.85853523 -111.386933995 6272.45761085 
-1183.14460014 -111.230905848 6261.61586373 
-1192.40475453 -111.075655846 6250.80462622 
-1201.63916395 -110.921179778 6240.02370393 
-1210.84799277 -110.767473463 6229.27290391 
-1220.03140408 -110.614532756 6218.55203467 
-1229.18955978 -110.462353545 6207.86090614 
-1238.32262058 -110.31093175 6197.19932967 
-1247.43074598 -110.160263326 6186.56711799 
-1256.5140943 -110.010344258 6175.96408523 
-1265.5728227 -109.861170564 6165.3900469 
-1274.60708719 -109.712738294 6154.84481985 
-1283.61704262 -109.565043531 6144.32822231 
-1292.60284272 -109.418082386 6133.84007379 
-1301.56464009 -109.271851004 6123.38019518 
-1310.50258621 -109.126345558 6112.94840863 
-1319.41683147 -108.981562254 6102.5445376 
-1328.30752518 -108.837497326 6092.16840685 
-1337.17481554 -108.694147039 6081.81984238 
-1346.01884971 -108.551507687 6071.49867146 
-1354.83977377 -108.409575594 6061.20472262 
-1363.63773276 -108.268347111 6050.9378256 
-1372.41287068 -108.12781862 6040.69781139 
-1381.16533051 -107.98798653 6030.48451215 
-1389.89525418 -107.848847279 6020.29776127 
-1398.60278265 -107.710397332 6010.13739332 
-1407.28805585 -107.572633184 6000.00324404 
-1415.95121274 -107.435551354 5989.89515035 
-1424.59239128 -107.29914839 5979.8129503 
-1433.21172847 -107.163420867 5969.75648311 
-1441.80936035 -107.028365387 5959.7255891 
-1450.385422 -106.893978578 5949.72010973 
-1458.94004754 -106.760257092 5939.73988758 
-1467.47337019 -106.627197612 5929.78476632 
-1475.98552222 -106.494796842 5919.85459069 
-1484.47663498 -106.363051513 5909.94920655 
-1492.94683891 -106.231958383 5900.0684608 
-1501.39626357 -106.101514232 5890.21220141 
-1509.8250376 -105.971715867 5880.3802774 
-91.9651414037 -118.253563757 7527.07470958 
-104.893664811 -118.018914118 7511.96716053 
-117.771025257 -117.785556169 7496.91967128 
-130.597605239 -117.553480819 7481.93179324 
-143.373783617 -117.322679067 7467.0030821 
-156.099935655 -117.093142 7452.13309776 
-168.776433068 -116.86486079 7437.32140429 
-181.403644059 -116.637826695 7422.56756987 
-193.981933368 -116.412031059 7407.87116677 
-206.511662307 -116.187465307 7393.23177123 
-218.993188806 -115.964120946 7378.64896352 
-231.426867449 -115.741989567 7364.12232778 
-243.813049515 -115.521062839 7349.65145207 
-256.152083018 -115.301332513 7335.23592825 
-268.444312746 -115.082790415 7320.87535199 
-280.690080296 -114.865428452 7306.56932268 
-292.889724114 -114.649238607 7292.31744343 
-305.043579531 -114.434212937 7278.11932097 
-317.151978801 -114.220343575 7263.97456569 
-329.215251135 -114.007622729 7249.88279151 
-341.233722734 -113.79604268 7235.84361589 
-353.207716831 -113.585595781 7221.85665978 
-365.137553719 -113.376274455 7207.92154758 
-377.023550789 -113.168071199 7194.03790709 
-388.866022558 -112.960978577 7180.20536947 
-400.66528071 -112.754989224 7166.42356923 
-412.421634122 -112.550095843 7152.69214416 
-424.135388898 -112.346291204 7139.01073529 
-435.806848403 -112.143568143 7125.37898688 
-447.436313291 -111.941919564 7111.79654637 
-459.024081537 -111.741338436 7098.26306434 
-470.570448468 -111.541817792 7084.77819447 
-482.075706794 -111.343350727 7071.34159353 
-493.540146634 -111.145930403 7057.9529213 
-504.964055549 -110.949550042 7044.61184059 
-516.347718567 -110.754202928 7031.31801717 
-527.691418217 -110.559882406 7018.07111974 
-538.995434551 -110.366581882 7004.8708199 
-550.260045175 -110.17429482 6991.71679213 
-561.485525277 -109.983014747 6978.60871375 
-572.672147651 -109.792735243 6965.54626489 
-583.820182726 -109.603449949 6952.52912843 
-594.929898591 -109.415152564 6939.55699003 
-606.001561022 -109.227836841 6926.62953803 
-617.035433505 -109.041496591 6913.74646349 
-628.031777267 -108.856125677 6900.9074601 
-638.990851292 -108.671718021 6888.11222418 
-649.912912355 -108.488267596 6875.36045466 
-660.798215038 -108.30576843 6862.65185302 
-671.647011761 -108.124214603 6849.98612329 
-682.4595528 -107.943600248 6837.36297202 
-693.236086314 -107.763919548 6824.78210823 
-703.976858365 -107.585166741 6812.2432434 
-714.682112944 -107.407336112 6799.74609147 
-725.352091991 -107.230421998 6787.29036874 
-735.987035418 -107.054418785 6774.87579392 
-746.58718113 -106.879320908 6762.50208808 
-757.152765049 -106.705122851 6750.16897459 
-767.684021132 -106.531819146 6737.87617915 
-778.181181394 -106.359404372 6725.62342972 
-788.644475928 -106.187873155 6713.41045652 
-799.074132928 -106.017220168 6701.23699202 
-809.470378704 -105.84744013 6689.10277087 
-819.833437706 -105.678527806 6677.00752991 
-830.163532544 -105.510478006 6664.95100816 
-840.460884006 -105.343285583 6652.93294675 
-850.725711077 -105.176945436 6640.95308894 
-860.958230957 -105.011452507 6629.01118007 
-871.158659085 -104.846801781 6617.10696758 
-881.32720915 -104.682988287 6605.24020093 
-891.464093114 -104.520007095 6593.41063161 
-901.569521232 -104.357853318 6581.61801312 
-911.643702274 -104.196522133 6569.8621025 
-921.686842707 -104.036008688 6558.14265412 
-931.699147969 -103.876308241 6546.45942892 
-941.68082165 -103.71741607 6534.81218821 
-951.632065716 -103.559327489 6523.20069523 
-961.553080528 -103.402037854 6511.62471509 
-971.444064857 -103.24554256 6500.08401475 
-981.305215902 -103.089837038 6488.57836303 
-991.136729303 -102.934916761 6477.1075306 
-1000.93879916 -102.780777236 6465.6712899 
-1010.71161805 -102.627414011 6454.26941517 
-1020.45537704 -102.474822669 6442.90168244 
-1030.1702657 -102.32299883 6431.56786947 
-1039.85647211 -102.171938151 6420.26775577 
-1049.51418292 -102.021636325 6409.00112257 
-1059.14358329 -101.872089079 6397.76775278 
-1068.74485698 -101.723292177 6386.56743101 
-1078.31818631 -101.575241419 6375.39994354 
-1087.86375219 -101.427932636 6364.26507829 
-1097.38173416 -101.281361697 6353.1626248 
-1106.87231036 -101.135524503 6342.09237427 
-1116.33565758 -100.990416989 6331.05411945 
-1125.77195127 -100.846035122 6320.0476547 
-1135.18136551 -100.702374904 6309.07277595 
-1144.56407309 -100.55943237 6298.12928067 
-1153.92024548 -100.417203583 6287.21696787 
-1163.25005283 -100.275684644 6276.3356381 
-1172.55366405 -100.134871682 6265.48509339 
-1181.83124675 -99.9947608571 6254.66513728 
-1191.08296727 -99.8553483622 6243.87557477 
-1200.30899074 -99.7166304202 6233.11621235 
-1209.50948102 -99.5786032846 6222.38685793 
-1218.68460077 -99.4412632389 6211.68732088 
-1227.83451144 -99.3046065967 6201.01741196 
-1236.95937327 -99.1686297011 6190.37694335 
-1246.05934532 -99.0333289246 6179.76572864 
-1255.13458548 -98.8987006689 6169.18358277 
-1264.18525047 -98.7647413641 6158.63032206 
-1273.21149585 -98.6314474691 6148.10576418 
-1282.21347606 -98.498815471 6137.60972813 
-1291.1913444 -98.3668418849 6127.14203426 
-1300.14525305 -98.2355232535 6116.70250419 
-1309.07535308 -98.1048561471 6106.29096089 
-1317.98179447 -97.974837163 6095.90722858 
-1326.8647261 -97.8454629256 6085.55113278 
-1335.7242958 -97.7167300859 6075.22250024 
-1344.5606503 -97.5886353216 6064.92115901 
-1353.37393531 -97.4611753361 6054.64693832 
-1362.16429546 -97.3343468593 6044.39966869 
-1370.93187438 -97.2081466465 6034.1791818 
-1379.67681463 -97.0825714786 6023.98531056 
-1388.39925781 -96.9576181616 6013.81788908 
-1397.09934447 -96.8332835267 6003.67675262 
-1405.77721417 -96.7095644298 5993.56173765 
-1414.4330055 -96.5864577513 5983.47268176 
-1423.06685606 -96.4639603961 5973.40942371 
-1431.67890249 -96.342069293 5963.37180339 
-1440.26928046 -96.220781395 5953.35966182 
-1448.8381247 -96.1000936786 5943.37284113 
-1457.38556899 -95.9800031436 5933.41118456 
-1465.91174618 -95.8605068133 5923.47453644 
-1474.41678819 -95.741601734 5913.56274218 
-1482.90082606 -95.6232849749 5903.67564827 
-1491.36398986 -95.5055536276 5893.81310226 
-1499.80640883 -95.3884048064 5883.97495277 
-1508.22821127 -95.2718356476 5874.16104945 
-78.8813167814 -105.183846823 7532.33554026 
-91.8445793929 -104.974666739 7517.20706573 
-104.756426613 -104.766638845 7502.1388374 
-117.617243171 -104.559755021 7487.13040483 
-130.427410129 -104.354007225 7472.18132188 
-143.187304931 -104.149387495 7457.29114668 
-155.897301443 -103.945887946 7442.45944149 
-168.557769999 -103.743500769 7427.68577276 
-181.16907744 -103.542218231 7412.969711 
-193.731587159 -103.342032673 7398.31083078 
-206.245659139 -103.142936509 7383.70871063 
-218.711649995 -102.944922227 7369.16293307 
-231.129913015 -102.747982387 7354.67308447 
-243.500798197 -102.552109619 7340.2387551 
-255.82465229 -102.357296623 7325.85953899 
-268.101818831 -102.16353617 7311.53503395 
-280.332638185 -101.970821099 7297.26484153 
-292.517447577 -101.779144316 7283.04856691 
-304.656581134 -101.588498796 7268.88581894 
-316.75036992 -101.398877577 7254.77621004 
-328.79914197 -101.210273765 7240.71935616 
-340.803222326 -101.022680531 7226.71487679 
-352.762933073 -100.836091108 7212.76239486 
-364.678593369 -100.650498793 7198.86153674 
-376.550519487 -100.465896948 7185.01193216 
-388.379024838 -100.282278992 7171.21321423 
-400.164420012 -100.09963841 7157.46501933 
-411.907012806 -99.9179687441 7143.76698715 
-423.607108259 -99.7372635973 7130.11876058 
-435.26500868 -99.5575166316 7116.51998571 
-446.88101368 -99.3787215674 7102.97031182 
-458.455420207 -99.2008721829 7089.46939126 
-469.98852257 -99.0239623131 7076.01687951 
-481.480612473 -98.8479858497 7062.61243508 
-492.931979041 -98.67293674 7049.25571952 
-504.342908853 -98.4988089867 7035.94639734 
-515.713685968 -98.325596647 7022.68413601 
-527.044591954 -98.1532938319 7009.46860593 
-538.335905918 -97.9818947059 6996.29948036 
-549.587904526 -97.8113934864 6983.17643544 
-560.800862042 -97.6417844428 6970.0991501 
-571.975050344 -97.4730618961 6957.06730609 
-583.110738956 -97.3052202186 6944.0805879 
-594.208195072 -97.1382538328 6931.13868275 
-605.267683586 -96.9721572114 6918.24128056 
-616.289467109 -96.8069248762 6905.38807392 
-627.273806003 -96.6425513982 6892.57875806 
-638.2209584 -96.4790313964 6879.81303081 
-649.131180229 -96.3163595379 6867.09059259 
-660.004725239 -96.1545305368 6854.41114638 
-670.841845023 -95.9935391543 6841.77439766 
-681.642789042 -95.8333801977 6829.18005443 
-692.407804647 -95.67404852 6816.62782715 
-703.137137105 -95.5155390196 6804.11742874 
-713.831029616 -95.3578466397 6791.6485745 
-724.489723342 -95.2009663678 6779.22098217 
-735.113457422 -95.0448932353 6766.83437181 
-745.702469 -94.889622317 6754.48846585 
-756.256993243 -94.7351487304 6742.18298902 
-766.777263364 -94.5814676359 6729.91766835 
-777.263510639 -94.4285742356 6717.69223313 
-787.715964433 -94.2764637732 6705.50641488 
-798.134852218 -94.1251315338 6693.35994735 
-808.520399591 -93.974572843 6681.25256649 
-818.872830298 -93.8247830667 6669.1840104 
-829.192366251 -93.6757576108 6657.15401936 
-839.479227546 -93.5274919206 6645.16233573 
-849.733632487 -93.3799814803 6633.20870401 
-859.955797601 -93.2332218131 6621.29287077 
-870.145937656 -93.0872084801 6609.41458462 
-880.304265683 -92.9419370803 6597.57359624 
-890.43099299 -92.7974032505 6585.7696583 
-900.526329395 -92.6536026856 6574.00252699 
-910.590482401 -92.510531053 6562.27195592 
-920.623658471 -92.3681841209 6550.57770519 
-930.626062208 -92.2265576718 6538.91953536 
-940.597896582 -92.0856475241 6527.29720886 
-950.539362949 -91.9454495309 6515.71049003 
-960.450661063 -91.8059595808 6504.15914508 
-970.331989096 -91.6671735965 6492.64294208 
-980.183543654 -91.5290875348 6481.16165092 
-990.00551979 -91.3916973868 6469.71504333 
-999.798111026 -91.2549991765 6458.30289281 
-1009.56150936 -91.1189889616 6446.92497467 
-1019.29590529 -90.9836628321 6435.58106595 
-1029.00148783 -90.849016911 6424.27094545 
-1038.67844451 -90.7150473529 6412.99439371 
-1048.32696141 -90.5817503448 6401.75119294 
-1057.94722316 -90.449122105 6390.54112707 
-1067.53941298 -90.3171588828 6379.3639817 
-1077.10371264 -90.1858569588 6368.21954408 
-1086.64030255 -90.055212644 6357.1076031 
-1096.1493617 -89.9252222797 6346.02794927 
-1105.63106774 -89.7958822373 6334.98037473 
-1115.08559693 -89.6671889178 6323.96467317 
-1124.5131242 -89.5391387517 6312.9806399 
-1133.91382317 -89.4117281986 6302.02807176 
-1143.28786609 -89.284953747 6291.10676715 
-1152.63542396 -89.158811914 6280.21652597 
-1161.95666646 -89.033299245 6269.35714968 
-1171.25176198 -88.9084123133 6258.52844119 
-1180.52087768 -88.78414772 6247.73020493 
-1189.76417943 -88.6605020938 6236.96224678 
-1198.98183187 -88.5374720906 6226.22437409 
-1208.17399843 -88.4150543931 6215.51639562 
-1217.3408413 -88.2932457109 6204.83812158 
-1226.48252146 -88.1720427799 6194.1893636 
-1235.59919872 -88.0514423624 6183.56993468 
-1244.69103169 -87.9314412465 6172.97964922 
-1253.75817783 -87.8120362459 6162.418323 
-1262.8007934 -87.6932242 6151.88577314 
-1271.81903356 -87.5750019734 6141.38181812 
-1280.81305231 -87.4573664555 6130.90627774 
-1289.78300253 -87.3403145605 6120.45897311 
-1298.72903597 -87.2238432273 6110.03972667 
-1307.6513033 -87.1079494188 6099.64836214 
-1316.54995408 -86.9926301223 6089.28470451 
-1325.4251368 -86.8778823487 6078.94858006 
-1334.27699887 -86.7637031326 6068.63981631 
-1343.10568664 -86.6500895319 6058.35824203 
-1351.9113454 -86.5370386278 6048.10368721 
-1360.69411942 -86.4245475244 6037.87598309 
-1369.45415191 -86.3126133486 6027.67496208 
-1378.19158509 -86.2012332498 6017.50045782 
-1386.90656014 -86.0904043998 6007.35230512 
-1395.59921725 -85.9801239925 5997.23033996 
-1404.26969561 -85.8703892436 5987.13439949 
-1412.91813345 -85.7611973909 5977.06432202 
-1421.54466799 -85.6525456933 5967.01994698 
-1430.14943552 -85.5444314314 5957.00111495 
-1438.73257134 -85.4368519066 5947.00766762 
-1447.29420983 -85.3298044416 5937.0394478 
-1455.83448442 -85.2232863795 5927.09629938 
-1464.35352761 -85.1172950844 5917.17806736 
-1472.851471 -85.0118279405 5907.2845978 
-1481.32844524 -84.9068823522 5897.41573785 
-1489.78458011 -84.8024557441 5887.57133568 
-1498.22000448 -84.6985455605 5877.75124055 
-1506.63484633 -84.5951492656 5867.95530274 
-52.7294498898 -92.2818783406 7552.81462943 
-65.7796758493 -92.0972973325 7537.60426152 
-78.7778419575 -91.9137352403 7522.45478363 
-91.7243389239 -91.7311848534 7507.36573912 
-104.619553722 -91.5496390314 7492.3366757 
-117.463869636 -91.3690907039 7477.36714541 
-130.257666301 -91.189532869 7462.45670452 
-143.001319754 -91.0109585931 7447.60491357 
-155.695202468 -90.8333610097 7432.81133719 
-168.339683404 -90.6567333186 7418.07554418 
-180.935128047 -90.4810687853 7403.39710738 
-193.481898449 -90.3063607402 7388.77560362 
-205.98035327 -90.1326025776 7374.21061374 
-218.430847819 -89.9597877553 7359.70172246 
-230.833734094 -89.7879097935 7345.2485184 
-243.189360817 -89.6169622743 7330.85059399 
-255.498073479 -89.4469388409 7316.50754543 
-267.760214373 -89.277833197 7302.2189727 
-279.976122634 -89.1096391058 7287.98447942 
-292.146134276 -88.9423503896 7273.80367289 
-304.270582227 -88.7759609289 7259.67616402 
-316.349796366 -88.610464662 7245.60156727 
-328.384103559 -88.4458555842 7231.57950063 
-340.373827692 -88.2821277468 7217.60958556 
-352.319289708 -88.1192752571 7203.69144699 
-364.220807639 -87.9572922773 7189.82471323 
-376.078696641 -87.796173024 7176.00901595 
-387.893269026 -87.6359117675 7162.24399016 
-399.664834296 -87.4765028314 7148.52927416 
-411.393699173 -87.3179405918 7134.86450947 
-423.080167633 -87.1602194768 7121.24934085 
-434.724540936 -87.0033339659 7107.68341622 
-446.327117658 -86.8472785892 7094.16638665 
-457.88819372 -86.6920479273 7080.6979063 
-469.408062418 -86.5376366104 7067.2776324 
-480.887014456 -86.3840393176 7053.90522523 
-492.325337971 -86.2312507767 7040.58034805 
-503.723318564 -86.0792657638 7027.30266709 
-515.081239329 -85.9280791019 7014.07185152 
-526.399380877 -85.7776856615 7000.8875734 
-537.678021372 -85.6280803592 6987.74950766 
-548.91743655 -85.4792581577 6974.65733206 
-560.11789975 -85.331214065 6961.61072718 
-571.27968194 -85.1839431341 6948.60937634 
-582.403051743 -85.0374404625 6935.65296565 
-593.488275464 -84.8917011914 6922.74118387 
-604.535617114 -84.7467205057 6909.8737225 
-615.545338438 -84.6024936332 6897.05027565 
-626.517698935 -84.4590158442 6884.27054007 
-637.452955888 -84.316282451 6871.53421511 
-648.351364385 -84.1742888078 6858.84100266 
-659.213177343 -84.0330303095 6846.19060717 
-670.038645536 -83.892502392 6833.5827356 
-680.82801761 -83.7527005316 6821.01709738 
-691.581540115 -83.6136202441 6808.49340439 
-702.299457522 -83.4752570849 6796.01137097 
-712.982012247 -83.3376066484 6783.57071382 
-723.629444674 -83.2006645677 6771.17115205 
-734.241993177 -83.0644265137 6758.81240711 
-744.819894139 -82.9288881955 6746.49420277 
-755.363381977 -82.7940453592 6734.2162651 
-765.87268916 -82.6598937882 6721.97832246 
-776.348046232 -82.5264293022 6709.78010545 
-786.789681832 -82.3936477574 6697.6213469 
-797.197822711 -82.2615450454 6685.50178184 
-807.57269376 -82.1301170936 6673.42114749 
-817.914518019 -81.9993598644 6661.37918322 
-828.223516708 -81.8692693549 6649.37563054 
-838.499909235 -81.7398415964 6637.41023307 
-848.743913225 -81.6110726544 6625.48273651 
-858.955744531 -81.4829586279 6613.59288865 
-869.135617258 -81.3554956494 6601.74043931 
-879.283743779 -81.2286798839 6589.92514033 
-889.400334959 -81.1025075485 6578.1467471 
-899.48559935 -80.9769748354 6566.40501239 
-909.539744442 -80.8520780257 6554.69969552 
-919.562975859 -80.7278134133 6543.03055625 
-929.555497581 -80.604177323 6531.39735622 
-939.517511964 -80.4811661111 6519.79985901 
-949.449219752 -80.3587761641 6508.23783004 
-959.350820096 -80.2370038992 6496.71103664 
-969.222510573 -80.1158457634 6485.21924794 
-979.064487196 -79.9952982336 6473.76223492 
-988.876944437 -79.8753578162 6462.33977037 
-998.660075237 -79.7560210465 6450.95162884 
-1008.41407102 -79.637284489 6439.59758669 
-1018.13912173 -79.5191447364 6428.27742198 
-1027.83541581 -79.4015984101 6416.99091455 
-1037.50314023 -79.2846421591 6405.73784592 
-1047.14248053 -79.1682726604 6394.51799934 
-1056.75362081 -79.0524866183 6383.33115972 
-1066.33674372 -78.9372807645 6372.17711363 
-1075.89203054 -78.8226518574 6361.05564931 
-1085.41966112 -78.708596682 6349.9665566 
-1094.91981395 -78.59511205 6338.90962699 
-1104.39266614 -78.4821947989 6327.88465354 
-1113.83839347 -78.3698417923 6316.8914309 
-1123.25717036 -78.2580499193 6305.92975528 
-1132.64916991 -78.1468160944 6294.99942447 
-1142.0145639 -78.0361372572 6284.10023775 
-1151.35352282 -77.9260103722 6273.23199596 
-1160.66621588 -77.8164324287 6262.39450141 
-1169.95281099 -77.7074004401 6251.58755794 
-1179.21347482 -77.5989114442 6240.81097082 
-1188.44837279 -77.4909625027 6230.06454683 
-1197.65766907 -77.3835507009 6219.34809414 
-1206.84152662 -77.2766731477 6208.6614224 
-1216.00010718 -77.1703269752 6198.00434266 
-1225.13357128 -77.0645093386 6187.37666737 
-1234.24207829 -76.9592174158 6176.77821037 
-1243.32578637 -76.8544484073 6166.20878688 
-1252.38485253 -76.7501995362 6155.6682135 
-1261.41943262 -76.6464680476 6145.15630814 
-1270.42968136 -76.5432512084 6134.67289009 
-1279.41575232 -76.4405463077 6124.21777994 
-1288.37779797 -76.3383506558 6113.79079959 
-1297.31596964 -76.2366615844 6103.39177225 
-1306.23041758 -76.1354764464 6093.02052241 
-1315.12129095 -76.0347926158 6082.67687583 
-1323.98873783 -75.9346074871 6072.36065954 
-1332.83290524 -75.8349184756 6062.07170181 
-1341.65393912 -75.7357230167 6051.80983215 
-1350.45198438 -75.6370185663 6041.5748813 
-1359.22718488 -75.5388026002 6031.3666812 
-1367.97968348 -75.4410726138 6021.18506502 
-1376.70962198 -75.3438261225 6011.02986709 
-1385.4171412 -75.2470606608 6000.90092293 
-1394.10238096 -75.1507737829 5990.79806924 
-1402.76548008 -75.0549630616 5980.72114385 
-1411.40657641 -74.959626089 5970.66998577 
-1420.02580682 -74.8647604758 5960.64443512 
-1428.62330723 -74.7703638514 5950.64433315 
-1437.19921259 -74.6764338636 5940.66952223 
-1445.75365693 -74.5829681782 5930.71984582 
-1454.28677331 -74.4899644794 5920.79514849 
-1462.79869392 -74.3974204692 5910.89527589 
-1471.28954997 -74.3053338674 5901.02007473 
-1479.75947181 -74.2137024113 5891.16939279 
-1488.20858886 -74.1225238558 5881.3430789 
-1496.63702966 -74.0317959731 5871.54098294 
-1505.04492187 -73.9415165522 5861.76295582 
-26.436280221 -79.3119009179 7573.40565342 
-39.5745460127 -79.1523470426 7558.11247151 
-52.6600977774 -78.9936758802 7542.88083247 
-65.6933323224 -78.8358811574 7527.71027332 
-78.6746426456 -78.6789566627 7512.60033551 
-91.6044179824 -78.5228962454 7497.55056489 
-104.48304385 -78.3676938149 7482.56051165 
-117.310902095 -78.2133433397 7467.62973027 
-130.088370935 -78.0598388472 7452.75777945 
-142.815825001 -77.9071744229 7437.94422209 
-155.493635386 -77.7553442091 7423.18862521 
-168.122169683 -77.604342405 7408.49055991 
-180.701792026 -77.4541632658 7393.84960135 
-193.232863134 -77.3048011015 7379.26532865 
-205.715740352 -77.1562502773 7364.73732488 
-218.150777689 -77.0085052118 7350.265177 
-230.538325855 -76.8615603772 7335.84847582 
-242.878732307 -76.7154102983 7321.48681596 
-255.172341283 -76.570049552 7307.17979576 
-267.419493837 -76.4254727667 7292.92701732 
-279.620527882 -76.2816746217 7278.72808638 
-291.775778225 -76.1386498463 7264.58261231 
-303.885576601 -75.9963932199 7250.49020806 
-315.95025171 -75.8548995706 7236.45049014 
-327.970129255 -75.7141637755 7222.46307854 
-339.94553197 -75.5741807593 7208.52759672 
-351.876779664 -75.4349454943 7194.64367155 
-363.764189246 -75.2964529998 7180.8109333 
-375.608074763 -75.1586983413 7167.02901556 
-387.40874743 -75.0216766301 7153.29755524 
-399.166515668 -74.8853830231 7139.61619251 
-410.881685128 -74.7498127216 7125.98457075 
-422.554558729 -74.6149609715 7112.40233656 
-434.185436688 -74.4808230625 7098.86913967 
-445.774616546 -74.3473943273 7085.38463295 
-457.322393207 -74.2146701416 7071.94847235 
-468.829058958 -74.0826459236 7058.56031685 
-480.294903506 -73.9513171331 7045.21982845 
-491.720214004 -73.8206792714 7031.92667215 
-503.105275081 -73.6907278807 7018.68051589 
-514.450368868 -73.5614585437 7005.48103049 
-525.755775027 -73.4328668831 6992.3278897 
-537.021770782 -73.3049485612 6979.22077009 
-548.248630941 -73.1776992796 6966.15935106 
-559.436627924 -73.0511147782 6953.14331478 
-570.586031793 -72.9251908357 6940.17234618 
-581.697110276 -72.7999232683 6927.24613293 
-592.770128789 -72.6753079299 6914.36436538 
-603.805350469 -72.5513407113 6901.52673655 
-614.803036192 -72.4280175399 6888.73294208 
-625.763444604 -72.3053343796 6875.98268024 
-636.68683214 -72.18328723 6863.27565186 
-647.57345305 -72.061872126 6850.61156034 
-658.423559427 -71.9410851379 6837.99011157 
-669.237401223 -71.8209223705 6825.41101396 
-680.015226278 -71.7013799631 6812.87397837 
-690.757280342 -71.5824540887 6800.37871812 
-701.463807094 -71.4641409542 6787.92494893 
-712.135048169 -71.3464367997 6775.51238891 
-722.771243179 -71.2293378979 6763.14075853 
-733.372629731 -71.1128405545 6750.8097806 
-743.939443455 -70.996941107 6738.51918024 
-754.471918019 -70.8816359251 6726.26868486 
-764.970285153 -70.7669214096 6714.05802414 
-775.43477467 -70.652793993 6701.88692997 
-785.865614485 -70.5392501382 6689.75513649 
-796.263030637 -70.426286339 6677.66238 
-806.627247307 -70.3138991192 6665.60839899 
-816.958486837 -70.2020850327 6653.59293408 
-827.256969755 -70.0908406627 6641.61572802 
-837.522914785 -69.9801626219 6629.67652565 
-847.756538874 -69.8700475521 6617.77507392 
-857.958057209 -69.7604921235 6605.91112178 
-868.12768323 -69.6514930349 6594.08442026 
-878.265628859 -69.5430470293 6582.29472392 
-888.372103703 -69.4351508289 6570.54178471 
-898.447316285 -69.3278012322 6558.82536116 
-908.491473255 -69.2209950485 6547.14521221 
-918.504779612 -69.1147291142 6535.50109872 
-928.487438716 -69.0090002924 6523.89278348 
-938.439652307 -68.9038054726 6512.32003117 
-948.361620523 -68.7991415704 6500.78260833 
-958.253541916 -68.6950055274 6489.28028334 
-968.115613465 -68.5913943106 6477.81282645 
-977.948030598 -68.4883049127 6466.38000968 
-987.750987202 -68.3857343513 6454.98160689 
-997.524675646 -68.2836796689 6443.61739368 
-1007.26928679 -68.1821379325 6432.28714742 
-1016.98500999 -68.0811062338 6420.99064724 
-1026.67203315 -67.9805816883 6409.72767396 
-1036.3305427 -67.8805614355 6398.49801012 
-1045.96072362 -67.7810426386 6387.30143998 
-1055.56275945 -67.6820224842 6376.13774941 
-1065.13683235 -67.5834981819 6365.00672598 
-1074.68312302 -67.4854669645 6353.90815889 
-1084.20181083 -67.3879260875 6342.84183895 
-1093.69307372 -67.2908728288 6331.80755858 
-1103.15708832 -67.1943044886 6320.8051118 
-1112.59402986 -67.0982183892 6309.83429418 
-1122.00407229 -67.0026118748 6298.89490287 
-1131.3873882 -66.9074823112 6287.98673655 
-1140.74414888 -66.8128270857 6277.10959543 
-1150.07452433 -66.7186436066 6266.26328123 
-1159.37868328 -66.6249293035 6255.44759716 
-1168.65679316 -66.5316816267 6244.66234793 
-1177.90902018 -66.438898047 6233.90733969 
-1187.13552927 -66.3465760559 6223.18238008 
-1196.33648415 -66.2547131648 6212.48727814 
-1205.51204732 -66.1633069054 6201.82184435 
-1214.66238007 -66.072354829 6191.18589061 
-1223.78764248 -65.9818545068 6180.57923019 
-1232.88799346 -65.8918035292 6170.00167777 
-1241.96359074 -65.8021995062 6159.45304939 
-1251.0145909 -65.7130400665 6148.93316244 
-1260.04114936 -65.6243228582 6138.44183566 
-1269.0434204 -65.5360455476 6127.9788891 
-1278.02155717 -65.44820582 6117.54414416 
-1286.97571172 -65.3608013789 6107.13742352 
-1295.90603497 -65.2738299459 6096.75855116 
-1304.81267676 -65.187289261 6086.40735233 
-1313.69578584 -65.1011770817 6076.08365356 
-1322.55550989 -65.0154911834 6065.78728263 
-1331.39199551 -64.9302293591 6055.51806854 
-1340.20538828 -64.845389419 6045.27584156 
-1348.99583269 -64.7609691908 6035.06043315 
-1357.76347224 -64.6769665189 6024.87167599 
-1366.50844937 -64.5933792649 6014.70940394 
-1375.23090554 -64.510205307 6004.57345207 
-1383.93098117 -64.4274425402 5994.46365659 
-1392.6088157 -64.3450888757 5984.37985491 
-1401.2645476 -64.2631422411 5974.32188556 
-1409.89831434 -64.1816005802 5964.28958821 
-1418.51025244 -64.1004618528 5954.28280369 
-1427.10049745 -64.0197240345 5944.30137391 
-1435.66918397 -63.9393851166 5934.34514191 
-1444.21644567 -63.859443106 5924.41395183 
-1452.74241528 -63.7798960251 5914.50764888 
-1461.24722463 -63.7007419114 5904.62607936 
-1469.73100459 -63.6219788179 5894.76909063 
-1478.19388517 -63.5436048124 5884.93653112 
-1486.63599545 -63.4656179774 5875.12825028 
-1495.05746366 -63.3880164106 5865.34409864 
-1503.45841711 -63.3107982239 5855.58392771 
-26.4014172934 -66.0053528128 7563.41820091 
-39.5224618077 -65.8727428352 7548.165212 
-52.5909303805 -65.7408658087 7532.97349363 
-65.6072183141 -65.6097165311 7517.84258535 
-78.5717171208 -65.4792898511 7502.77203115 
-91.4848145686 -65.3495806679 7487.76137936 
-104.346894727 -65.2205839302 7472.81018263 
-117.158338011 -65.0922946363 7457.91799784 
-129.919521226 -64.9647078328 7443.08438612 
-142.63081761 -64.8378186143 7428.30891273 
-155.292596877 -64.711622123 7413.59114703 
-167.90522526 -64.5861135477 7398.93066245 
-180.469065551 -64.4612881238 7384.32703642 
-192.984477143 -64.3371411323 7369.77985033 
-205.451816069 -64.2136678995 7355.2886895 
-217.871435043 -64.0908637963 7340.85314309 
-230.243683501 -63.9687242379 7326.47280411 
-242.568907636 -63.8472446831 7312.14726931 
-254.847450437 -63.7264206338 7297.87613921 
-267.079651729 -63.6062476346 7283.65901799 
-279.265848208 -63.4867212721 7269.49551349 
-291.406373479 -63.3678371748 7255.38523714 
-303.501558089 -63.2495910121 7241.32780395 
-315.551729568 -63.1319784943 7227.32283243 
-327.557212457 -63.0149953719 7213.36994457 
-339.518328349 -62.8986374351 7199.4687658 
-351.435395919 -62.7829005134 7185.61892496 
-363.308730961 -62.6677804752 7171.82005423 
-375.138646417 -62.5532732274 7158.07178912 
-386.925452412 -62.4393747147 7144.37376843 
-398.669456289 -62.3260809194 7130.72563417 
-410.370962634 -62.213387861 7117.12703161 
-422.030273316 -62.1012915957 7103.57760914 
-433.647687509 -61.989788216 7090.07701832 
-445.22350173 -61.8788738501 7076.62491379 
-456.758009864 -61.7685446619 7063.22095326 
-468.251503198 -61.6587968502 7049.86479747 
-479.704270447 -61.5496266487 7036.55611016 
-491.116597783 -61.4410303253 7023.29455802 
-502.488768866 -61.3330041816 7010.07981067 
-513.82106487 -61.2255445532 6996.91154064 
-525.113764514 -61.1186478084 6983.78942331 
-536.367144084 -61.0123103487 6970.71313689 
-547.581477463 -60.9065286078 6957.68236238 
-558.757036161 -60.8012990515 6944.69678359 
-569.894089334 -60.6966181775 6931.75608701 
-580.992903818 -60.5924825148 6918.85996189 
-592.053744148 -60.4888886233 6906.00810012 
-603.076872587 -60.3858330939 6893.20019626 
-614.062549151 -60.2833125475 6880.43594747 
-625.01103163 -60.1813236355 6867.71505352 
-635.922575619 -60.0798630387 6855.03721673 
-646.797434536 -59.9789274672 6842.40214196 
-657.635859647 -59.8785136607 6829.80953657 
-668.438100091 -59.778618387 6817.2591104 
-679.204402903 -59.6792384429 6804.75057575 
-689.935013036 -59.580370653 6792.28364733 
-700.630173384 -59.4820118701 6779.85804227 
-711.290124802 -59.3841589742 6767.47348005 
-721.915106131 -59.2868088728 6755.12968252 
-732.50535422 -59.1899585003 6742.82637384 
-743.061103943 -59.0936048178 6730.56328047 
-753.582588226 -58.9977448128 6718.34013114 
-764.070038063 -58.902375499 6706.15665684 
-774.523682538 -58.8074939159 6694.01259076 
-784.943748847 -58.7130971285 6681.90766832 
-795.330462316 -58.6191822273 6669.84162711 
-805.684046422 -58.5257463277 6657.81420686 
-816.004722813 -58.43278657 6645.82514945 
-826.292711324 -58.340300119 6633.87419885 
-836.548230002 -58.2482841638 6621.96110115 
-846.771495118 -58.1567359174 6610.08560446 
-856.962721192 -58.0656526169 6598.24745896 
-867.122121006 -57.9750315225 6586.44641687 
-877.24990583 -57.8848699314 6574.6822339 
-887.346284624 -57.7951651236 6562.95466318 
-897.411465275 -57.7059144422 6551.26346437 
-907.445653801 -57.6171152392 6539.60839756 
-917.449054575 -57.5287648892 6527.98922475 
-927.421870341 -57.440860789 6516.40570984 
-937.364302227 -57.353400357 6504.85761859 
-947.276549766 -57.2663810337 6493.34471865 
-957.158810912 -57.1798002806 6481.8667795 
-967.011282052 -57.0936555808 6470.42357243 
-976.834158029 -57.0079444384 6459.01487055 
-986.62763215 -56.9226643781 6447.64044875 
-996.391896209 -56.8378129453 6436.30008368 
-1006.1271405 -56.7533877061 6424.99355375 
-1015.83355382 -56.6693862464 6413.7206391 
-1025.51132352 -56.5858061723 6402.48112156 
-1035.16063546 -56.5026451098 6391.27478469 
-1044.7816741 -56.4199007042 6380.10141371 
-1054.37462244 -56.3375706206 6368.9607955 
-1063.93966209 -56.2556525431 6357.8527186 
-1073.47697324 -56.1741441747 6346.77697315 
-1082.98673472 -56.0930432377 6335.73335094 
-1092.46912398 -56.0123474726 6324.72164532 
-1101.9243171 -55.9320546386 6313.74165125 
-1111.35248886 -55.8521625132 6302.79316524 
-1120.75381265 -55.772668892 6291.87598533 
-1130.1284606 -55.6935715886 6280.98991114 
-1139.4766035 -55.6148684342 6270.13474376 
-1148.79841088 -55.5365572778 6259.31028581 
-1158.09405095 -55.4586359857 6248.51634139 
-1167.36369071 -55.3811024416 6237.75271608 
-1176.60749586 -55.3039545461 6227.01921691 
-1185.8256309 -55.2271902169 6216.31565235 
-1195.01825906 -55.1508073885 6205.64183231 
-1204.1855424 -55.0748040119 6194.99756813 
-1213.32764174 -54.9991780545 6184.38267251 
-1222.44471673 -54.9239275001 6173.79695958 
-1231.53692583 -54.8490503487 6163.24024483 
-1240.60442634 -54.7745446162 6152.7123451 
-1249.64737439 -54.7004083343 6142.2130786 
-1258.66592498 -54.6266395505 6131.74226486 
-1267.66023195 -54.5532363278 6121.29972474 
-1276.63044805 -54.4801967445 6110.8852804 
-1285.5767249 -54.4075188943 6100.4987553 
-1294.499213 -54.335200886 6090.13997419 
-1303.3980618 -54.2632408432 6079.8087631 
-1312.27341963 -54.1916369044 6069.50494929 
-1321.12543377 -54.1203872231 6059.22836129 
-1329.95425043 -54.0494899668 6048.97882887 
-1338.76001477 -53.9789433178 6038.75618301 
-1347.54287093 -53.9087454727 6028.5602559 
-1356.302962 -53.838894642 6018.39088095 
-1365.04043005 -53.7693890505 6008.24789273 
-1373.75541613 -53.7002269367 5998.13112702 
-1382.44806032 -53.6314065529 5988.04042074 
-1391.11850169 -53.5629261653 5977.97561198 
-1399.76687831 -53.4947840532 5967.93653997 
-1408.39332732 -53.4269785096 5957.92304507 
-1416.99798485 -53.3595078406 5947.93496877 
-1425.58098611 -53.2923703657 5937.97215367 
-1434.14246534 -53.2255644172 5928.03444347 
-1442.68255586 -53.1590883403 5918.12168297 
-1451.20139006 -53.0929404932 5908.23371803 
-1459.69909941 -53.0271192467 5898.37039561 
-1468.17581446 -52.9616229841 5888.5315637 
-1476.63166486 -52.8964501013 5878.71707137 
-1485.06677937 -52.8315990063 5868.92676872 
-1493.48128588 -52.7670681198 5859.16050687 
-1501.87531138 -52.7028558741 5849.41813798 
-1510.24898199 -52.6389607138 5839.69951522 
-26.3666472537 -52.7342583348 7553.45735872 
-39.4705160993 -52.6284502864 7538.24440315 
-52.5219465424 -52.5232264964 7523.09244722 
-65.5213323881 -52.4185828232 7508.00103302 
-78.4690636702 -52.3145151656 7492.96970704 
-91.3655266974 -52.2110194626 7477.99802006 
-104.211104098 -52.1080916928 7463.08552719 
-117.006174863 -52.0057278738 7448.23178772 
-129.751114394 -51.9039240619 7433.43636516 
-142.44629454 -51.8026763516 7418.69882711 
-155.092083645 -51.7019808751 7404.01874529 
-167.688846589 -51.6018338019 7389.39569541 
-180.236944827 -51.5022313382 7374.82925718 
-192.736736431 -51.4031697267 7360.31901425 
-205.188576133 -51.3046452462 7345.86455415 
-217.592815358 -51.2066542108 7331.46546824 
-229.94980227 -51.1091929698 7317.1213517 
-242.259881805 -51.0122579075 7302.83180343 
-254.523395714 -50.915845442 7288.59642608 
-266.740682594 -50.8199520257 7274.41482593 
-278.912077932 -50.7245741445 7260.28661288 
-291.037914135 -50.6297083172 7246.21140044 
-303.118520571 -50.5353510956 7232.18880562 
-315.154223601 -50.4414990636 7218.21844894 
-327.145346614 -50.3481488375 7204.2999544 
-339.092210063 -50.2552970647 7190.43294937 
-350.995131499 -50.1629404244 7176.61706463 
-362.854425603 -50.0710756264 7162.85193429 
-374.670404218 -49.9796994111 7149.13719574 
-386.443376386 -49.8888085492 7135.47248966 
-398.173648375 -49.7983998412 7121.85745993 
-409.861523712 -49.708470117 7108.29175364 
-421.507303218 -49.619016236 7094.775021 
-433.111285034 -49.5300350862 7081.30691537 
-444.673764652 -49.4415235844 7067.88709315 
-456.195034949 -49.3534786754 7054.51521383 
-467.675386211 -49.2658973319 7041.19093986 
-479.115106167 -49.1787765544 7027.91393671 
-490.514480014 -49.0921133705 7014.68387277 
-501.873790448 -49.0059048349 7001.50041934 
-513.193317691 -48.9201480289 6988.36325061 
-524.473339517 -48.8348400603 6975.2720436 
-535.714131284 -48.7499780629 6962.22647816 
-546.915965954 -48.6655591964 6949.2262369 
-558.079114128 -48.5815806459 6936.2710052 
-569.203844064 -48.4980396219 6923.36047115 
-580.290421707 -48.4149333599 6910.49432554 
-591.339110715 -48.3322591198 6897.67226182 
-602.350172483 -48.2500141863 6884.89397606 
-613.323866168 -48.168195868 6872.15916694 
-624.260448712 -48.0868014977 6859.46753572 
-635.16017487 -48.0058284315 6846.8187862 
-646.02329723 -47.9252740492 6834.21262469 
-656.85006624 -47.8451357534 6821.64876002 
-667.640730227 -47.76541097 6809.12690344 
-678.395535424 -47.6860971473 6796.64676867 
-689.114725992 -47.607191756 6784.20807185 
-699.79854404 -47.5286922891 6771.81053146 
-710.447229649 -47.4505962614 6759.45386837 
-721.061020894 -47.3729012094 6747.1378058 
-731.640153865 -47.2956046911 6734.86206923 
-742.184862688 -47.2187042859 6722.62638647 
-752.695379546 -47.142197594 6710.43048756 
-763.171934701 -47.0660822364 6698.2741048 
-773.614756513 -46.9903558548 6686.15697267 
-784.02407146 -46.9150161113 6674.07882786 
-794.40010416 -46.840060688 6662.03940923 
-804.743077389 -46.765487287 6650.03845777 
-815.053212101 -46.6912936301 6638.07571658 
-825.330727445 -46.6174774587 6626.15093088 
-835.575840789 -46.5440365335 6614.26384794 
-845.788767735 -46.4709686342 6602.41421711 
-855.969722137 -46.3982715598 6590.60178975 
-866.118916323 -46.3259431383 6578.82632077 
