VERSION .7
FIELDS x y z
SIZE 4 4 4
TYPE F F F
COUNT 1 1 1
WIDTH 852
HEIGHT 1
VIEWPOINT 0 0 0 1 0 0 0
POINTS 852
DATA ascii
1783.773494510548 50.00000907953199 167.4399024389304 
1797.5196514970135 50.000009009026144 175.4579612177622 
1811.2234615520265 50.000008938753126 183.4492575494869 
1824.8852105476471 50.00000886871294 191.41396772064218 
1838.505182045148 50.000008798902854 199.3522665780265 
1852.0836573193083 50.00000872932196 207.26432754377674 
1865.620915382412 50.000008659967534 215.15032263026842 
1879.1172330079403 50.00000859083957 223.01042245482495 
1892.5728847539817 50.00000852193716 230.844796254245 
1905.9881429863462 50.00000845325667 238.65361189915802 
1919.363277901397 50.00000838479809 246.43703590819132 
1932.6985575486037 50.000008316558706 254.19523346197002 
1945.9942478528174 50.000008248539416 261.9283684169477 
1959.2506126362741 50.000008180736586 269.63660331906067 
1972.4679136403297 50.000008113150216 277.3200994172212 
1985.6464105469327 50.00000804577758 284.97901667664246 
1998.7863609998299 50.00000797861776 292.6135137920046 
2011.88802005885 50.00000894028926 300.2237471960416 
2024.9516424903277 50.00000887355236 307.8098750918125 
2037.9774793784068 50.00000880702373 315.3720514336155 
2050.9657804210506 50.00000874070247 322.91042996247506 
2063.9167933802905 50.00000867458857 330.42516321235416 
2076.830764101949 50.00000860867931 337.91640252239176 
2089.70793653512 50.000008542972864 345.3842980489935 
2102.548552751425 50.000008477470146 352.828998777778 
2115.352852964038 50.00000841216843 360.25065253538924 
2128.1210755464786 50.00000834706498 367.6494060011519 
2140.8534570511893 50.00000828216071 375.02540471860175 
2153.5502322278876 50.0000082174538 382.3787931068737 
2166.2116340417056 50.00000815294334 389.7097144719546 
2178.8378936911126 50.00000808862569 397.0183110178086 
2191.429240625626 50.000008024504496 404.3047238573581 
2203.98590256332 50.000007960574294 411.5690930233577 
2216.5081055081214 50.000007896835086 418.8115574791136 
2228.9960737669085 50.00000783328596 426.03225512910103 
2241.450029966407 50.000007769925105 433.2313228294379 
2253.870195069896 50.0000077067516 440.40889639825946 
2266.256788393708 50.00000764376364 447.5651106259402 
2278.61002762355 50.00000758096212 454.70009928523086 
2290.930128830628 50.00000751834432 461.8139951412559 
2303.2173064875856 50.000007455909326 468.9069299613984 
2315.4717734842666 50.00000739365532 475.97903452507944 
2327.693741143281 50.00000733158322 483.0304386334119 
2339.8834192354143 50.00000726968938 490.0612711187614 
2352.0410159948347 50.000007207973795 497.07165985417305 
2364.1667381341513 50.000007146436474 504.0617317627102 
2376.2607908592786 50.000007085073776 511.03161282668316 
2388.323377884152 50.00000702388752 517.9814280967603 
2400.3547014452574 50.00000696287316 524.9113017009913 
2412.35496231601 50.00000690203342 531.821356853713 
1483.4116186936703 50.00001049419279 8.12021876322433 
1498.1016672785277 50.000010418701095 16.70708083154841 
1512.742893714631 50.00001034347497 25.263326801621588 
1527.3356374813566 50.000010268516235 33.789165466402665 
1541.8802351715576 50.000010193821254 42.28480382950693 
1556.37702052317 50.00001011938639 50.750447124744824 
1570.8263244504083 50.00001004521346 59.18629883540689 
1585.2284750745685 50.00000997129882 67.59256071331401 
1599.5837977544156 50.000009897640666 75.96943279760399 
1613.8926151161918 50.00000982423626 84.31711343328607 
1628.1552470832362 50.0000097510856 92.63579928955278 
1642.372010905221 50.00000967818687 100.92568537785428 
1656.5432211870193 50.00000960553825 109.18696506975084 
1670.669189917197 50.00000953313793 117.4198301145243 
1684.7502264961508 50.000009460983165 125.62447065657489 
1698.7866377638748 50.00000938907306 133.80107525258882 
1712.7787280273878 50.00000931740669 141.9498308884904 
1726.7267990878108 50.000009245981346 150.07092299618762 
1740.6311502670924 50.000009174796105 158.1645354700886 
1754.4920784344094 50.00000910385006 166.2308506834279 
1768.3098780322289 50.000009033140486 174.27004950437004 
1782.084841102048 50.00000896266465 182.28231131193115 
1795.8172573097986 50.000008892423466 190.26781401167318 
1809.507413970955 50.00000882241511 198.22673405122987 
1823.1555960753076 50.00000875263686 206.15924643562175 
1836.7620863114453 50.00000868308689 214.0655247423856 
1850.3271650909196 50.0000086137652 221.9457411365147 
1863.8511105721223 50.00000854466907 229.80006638521172 
1877.3341986838545 50.000008475797586 237.62866987246616 
1890.7767031486187 50.000008407149835 245.4317196134416 
1904.1788955056118 50.00000833872309 253.20938226869657 
1917.5410451334446 50.000008270516446 260.96182315821625 
1930.8634192725758 50.00000820252899 268.68920627528496 
1944.1462830474784 50.00000813475799 276.39169430018774 
1957.389899488529 50.00000806720436 284.06944861372995 
1970.5945295536353 50.000007999864465 291.72262931061414 
1983.7604321495965 50.00000793273739 299.3513952126332 
1996.8878635830515 50.000008894440725 306.95590287886444 
2009.9770798649965 50.000008827735655 314.5363106317209 
2023.0283333013035 50.00000876124068 322.0927725472766 
2036.0418748028446 50.00000869495125 329.6254424845529 
2049.0179533323785 50.00000862887009 337.13447309330695 
2061.9568159244186 50.00000856299357 344.6200158263173 
2074.8587077048574 50.00000849732078 352.0822209515045 
2087.7238719103507 50.00000843184989 359.5212375639112 
2100.5525499074806 50.000008366580914 366.9372135975427 
2113.3449812116833 50.000008301510206 374.3302958370632 
2126.101403505954 50.00000823663959 381.7006299293462 
2138.822052659332 50.00000817196542 389.0483603949042 
2151.507162745162 50.00000810748679 396.37363063916746 
2164.1569660591495 50.00000804320371 403.67658296363606 
2176.7716931371906 50.00000797911434 410.9573585768994 
2189.3515727730023 50.000007915216884 418.2160976055238 
2201.8968320355452 50.00000785151042 425.4529391048218 
2214.407696286232 50.000007787994036 432.6680210694758 
2226.884389195952 50.00000772466592 439.8614804440567 
2239.327132761879 50.00000766152607 447.03345313341106 
2251.7361473241017 50.000007598571756 454.1840740129255 
2264.1116515820436 50.00000753580298 461.3134769386761 
2276.453862610705 50.00000747321792 468.4217947574589 
2288.7629958767134 50.00000741081658 475.50915931669715 
2301.0392652541864 50.00000734859623 482.5757014742494 
2313.2828830404155 50.000007286555956 489.62155110808817 
2325.494059971368 50.000007224696674 496.6468371258734 
2337.6730052370117 50.000007163013834 503.65168747442294 
2349.819926496462 50.000007101509254 510.63622914905955 
2361.935029892961 50.00000704018021 517.6005882028667 
2374.018520068682 50.00000697902669 524.5448897558244 
2386.0706001793624 50.00000691804689 531.4692580038522 
2398.091471908782 50.000006857240805 538.3738162277432 
2410.0813354830652 50.000006796604794 545.2586868019989 
2422.0403896848256 50.00000673613886 552.1239912035576 
1452.5410396286352 50.00001052292646 6.4551084958966385 
1467.3137824558185 50.000010447194654 15.066926968750522 
1482.037125624633 50.00001037173206 23.64791808839618 
1496.7114133472228 50.000010296537766 32.198292689823575 
1511.3369868977215 50.000010221608136 40.71825979483401 
1525.9141846445273 50.00001014694317 49.20802663191262 
1540.4433420821501 50.000010072539226 57.667798655831575 
1554.9247918626493 50.00000999839631 66.09777956700873 
1569.3588638266606 50.00000992451169 74.49817133060424 
1583.7458850340267 50.00000985088445 82.86917419537804 
1598.0861797940274 50.00000977751097 91.21098671230448 
1612.3800696952221 50.00000970439123 99.52380575293864 
1626.6278736349122 50.000009631524335 107.8078265275517 
1640.8299078482237 50.00000955890573 116.06324260304154 
1654.986485936814 50.00000948653542 124.29024592059886 
1669.0979188972174 50.00000941441158 132.4890268131512 
1683.1645151488292 50.00000934253512 140.6597740226007 
1697.186580561534 50.00000927089786 148.80267471682328 
1711.1644184829765 50.00000919950526 156.91791450644996 
1725.0983297655034 50.00000912835185 165.0056774614659 
1738.9886127927484 50.00000905743673 173.06614612755766 
1752.8355635058901 50.000008986758075 181.09950154228682 
1766.6394754295807 50.00000891631589 189.10592325104244 
1780.40063969755 50.00000884610654 197.0855893228063 
1794.1193450778824 50.00000877612911 205.03867636570521 
1807.7958779979863 50.00000870638269 212.96535954238243 
1821.4305225692474 50.00000863686546 220.865812585168 
1835.023560611377 50.000008567574696 228.740207811069 
1848.5752716764587 50.000008498512216 236.58871613656538 
1862.085933072699 50.00000842967165 244.4115070922262 
1875.5558198878757 50.00000836105664 252.2087488371426 
1888.9852050125141 50.00000829266173 259.9806081731913 
1902.374359162758 50.00000822448874 267.72725055910814 
1915.7235509029779 50.00000815653311 275.4488401244016 
1929.0330466680884 50.00000808879577 283.14553968308337 
1942.3031107856032 50.00000802127306 290.817510747248 
1955.534005497414 50.000007953965905 298.464913540467 
1968.7259909813079 50.00000788687066 306.08790701103226 
1981.8793253722215 50.00000781998915 313.68664884503596 
1994.994264212647 50.00000878193532 321.26129447976564 
2008.071062758791 50.00000871547218 328.8120011163255 
2021.1099725683762 50.00000864921731 336.33892172982087 
2034.1112438123969 50.00000858316889 343.8422090851909 
2047.0751247214862 50.000008517325114 351.32201474823705 
2060.0018616056727 50.00000845168597 358.7784890977755 
2072.891698873914 50.00000838624692 366.211781337659 
2085.7448790533826 50.00000832101068 373.6220395086366 
2098.561642808541 50.000008255974535 381.0094105000917 
2111.3422289599666 50.00000819113484 388.37404006162615 
2124.0868745029716 50.00000812649523 395.71607281450906 
2136.7958146259994 50.000008062050256 403.035652263 
2149.469282728794 50.00000799779991 410.3329208055202 
2162.107510440363 50.00000793374329 417.60801974570677 
2174.7107276367324 50.00000786987948 424.86108930333285 
2187.279162458481 50.00000780620667 432.0922686250906 
2199.813041328087 50.00000774272212 439.30169579526864 
2212.312588967046 50.00000767942856 446.4895078462687 
2224.7780284128207 50.000007616321454 453.6558407690454 
2237.209581035567 50.00000755340079 460.80082952338034 
2249.6074665546803 50.000007490665666 467.92460804806615 
2261.9719030551414 50.00000742811426 475.02730927095945 
2274.303107003683 50.00000736574566 482.1090651189206 
2286.6012932647586 50.00000730355805 489.17000652763454 
2298.866675116332 50.00000724155234 496.2102634513203 
2311.099464265493 50.0000071797258 503.2299648723383 
2323.299870863878 50.00000711807661 510.2292388106662 
2335.468103522927 50.00000705660477 517.2082123332866 
2347.60436932896 50.00000699530938 524.1670115634506 
2359.708873858084 50.000006934188605 531.1057616898515 
2371.781821190929 50.000006873242455 538.0245869756795 
2383.8234139272167 50.00000681246911 544.9236107675802 
2395.8338532001662 50.00000675186675 551.802955504515 
2407.8133386907302 50.00000669143628 558.6627427265053 
2419.7620686416813 50.000006631174074 565.5030930833036 
1421.539187150413 50.000010551876585 4.771183107028264 
1436.3956083141902 50.000010475902855 13.408125558318716 
1451.2020445886014 50.00001040020106 22.014027245629222 
1465.9588450024644 50.00001032476757 30.58910107369593 
1480.6663555940354 50.0000102496042 39.13355810983376 
1495.3249194439645 50.000010174704585 47.647607604131736 
1509.9348767078027 50.00001010006963 56.13145700938185 
1524.4965646481055 50.00001002569661 64.58531200075868 
1539.0103176661041 50.000009951584616 73.00937649522893 
1553.4764673329737 50.00000987773092 81.40385267072452 
1567.8953424206902 50.0000098041337 89.76894098504908 
1582.267268932499 50.000009730792044 98.10484019455816 
1596.5925701329775 50.00000965770414 106.41174737258461 
1610.8715665777231 50.00000958486726 114.68985792763579 
1625.104576142654 50.000009512279576 122.9393656213515 
1639.2919140529311 50.000009439942005 131.160462586231 
1653.4338929115247 50.00000936784909 139.3533393431444 
1667.5308227273986 50.000009296002645 147.51818481860028 
1681.583010943349 50.00000922439904 155.65518636181514 
1695.5907624634851 50.000009153037354 163.7645297615527 
1709.5543796803622 50.00000908191578 171.84639926275304 
1723.4741625017718 50.00000901103249 179.90097758294996 
1737.3504083771927 50.00000894038658 187.9284459284845 
1751.183412323915 50.00000886997532 195.92898401051207 
1764.9734669528252 50.00000879979871 203.9027700608085 
1778.7208624938817 50.00000872985311 211.849980847378 
1792.4258868212596 50.00000866013943 219.77079168986347 
1806.0888254781894 50.00000859065403 227.6653764747698 
1819.7099617014856 50.00000852139601 235.53390767049405 
1833.2895764457658 50.000008452365364 243.3765563421639 
1846.8279484073769 50.00000838355845 251.193492166306 
1860.3253540480205 50.000008314975275 258.98488344531324 
1873.782067618085 50.000008246614016 266.7508971217494 
1887.1983611796995 50.000008178471944 274.49169879247347 
1900.5745046294928 50.00000811054906 282.207452722585 
1913.9107657210798 50.000008042844456 289.8983218591966 
1927.2074100872733 50.0000079753554 297.5644678450544 
1940.4647012620248 50.00000790808099 305.2060510319725 
1953.6829007020901 50.000007841019396 312.82323049410843 
1966.862267808444 50.00000777416881 320.41616404108845 
1980.0030593733454 50.00000873614863 327.9850072329882 
1993.1055319005904 50.000008669720046 335.52991738675973 
2006.1699381725434 50.00000860349792 343.0510475958099 
2019.1965295759856 50.000008537482245 350.548550739627 
2032.1855555451343 50.0000084716703 358.0225784964023 
2045.1372635815442 50.00000840606481 365.47328135521457 
2058.0518992737784 50.000008340659406 372.9008086280892 
2070.9297063168297 50.00000827545682 380.3053084618914 
2083.770926531329 50.000008210453416 387.6869278500917 
2096.57579988251 50.00000814564828 395.04581264438366 
2109.344564498956 50.000008081041415 402.3821075661672 
2122.077456691121 50.00000801663009 409.6959562178927 
2134.774710969637 50.00000795241249 416.98750109427874 
2147.4365600633946 50.00000788838952 424.2568835933771 
2160.063234937426 50.00000782455845 431.5042440275356 
2172.6549648105633 50.00000776091929 438.7297216342058 
2185.2119771728967 50.0000076974693 445.93345458664135 
2197.7344978030283 50.000007634209396 453.11558000445984 
2210.222750785125 50.00000757113594 460.27623396408944 
2222.676958525764 50.00000750824893 467.41555150908516 
2235.0973417705977 50.000007445546544 474.5336666603307 
2247.48411962081 50.0000073830297 481.63071242612114 
2259.837509549394 50.00000732069384 488.70682081212726 
2272.1577274172296 50.00000725854079 495.76212283124005 
2284.444987488986 50.00000719656782 502.7967485133104 
2296.6995024488388 50.00000713477493 509.8108269147715 
2308.9214834160002 50.000007073160305 516.8044861281478 
2321.1111399600773 50.00000701172212 523.7778532914599 
2333.268680116256 50.000006950460374 530.7310545975179 
2345.3943104003024 50.00000688937325 537.6642153031089 
2357.4882358234063 50.000006828459846 544.5774597380814 
2369.5506599068417 50.00000676772106 551.4709113143235 
2381.581784696477 50.00000670715144 558.3446925346443 
2393.5818107771006 50.00000664675554 565.1989250015404 
2405.550937286608 50.00000658652698 572.033729425887 
2417.4893619300065 50.000006526468496 578.8492256355053 
1390.4043455191045 50.00001058103953 3.06856263669124 
1405.345441547433 50.00001050482388 11.730798293107 
1420.235959597659 50.00001042888016 20.361777591161626 
1435.0762536009015 50.00001035320929 28.96171553352451 
1449.8666744440752 50.00001027780672 37.53082526079925 
1464.607570003529 50.000010202673366 46.06931807204637 
1479.299285178256 50.00001012780467 54.57740344506328 
1493.9421619226518 50.00001005319973 63.055289056367656 
1508.5365392788603 50.00000997885763 71.50318080094348 
1523.0827534086907 50.00000990477747 79.92128281171881 
1537.5811376251227 50.000009830954696 88.30979747879519 
1552.0320224234015 50.0000097573884 96.66892546842428 
1566.4357355117322 50.00000968407858 104.99886574173706 
1580.7926018415787 50.000009611021596 113.29981557323845 
1595.1029436375698 50.00000953821473 121.57197056905716 
1609.3670804270218 50.00000946565979 129.81552468496102 
1623.5853290690857 50.00000939335405 138.0306702441476 
1637.7580037835223 50.000009321292964 146.2175979548001 
1651.8854161790996 50.00000924947835 154.37649692741888 
1665.9678752816408 50.00000917790658 162.5075546919361 
1680.0056875617133 50.00000910657673 170.61095721461606 
1693.9991569619597 50.00000903548789 178.6868889147263 
1707.9485849240932 50.000008964635526 186.7355326810184 
1721.8542704155416 50.00000889402236 194.7570698879781 
1735.7165099557646 50.00000882364384 202.75168041188863 
1749.5355976422375 50.00000875349815 210.71954264668784 
1763.3118251761039 50.0000086835862 218.66083351961333 
1777.0454818875164 50.000008613904356 226.57572850667202 
1790.7368547606538 50.00000854445261 234.46440164789965 
1804.3862284584307 50.00000847522733 242.3270255624402 
1817.9938853468948 50.00000840622852 250.16377146342893 
1831.5601055193279 50.000008337455256 257.97480917269877 
1845.0851668200462 50.000008268903 265.76030713530236 
1858.5693448678985 50.000008200575394 273.5204324338438 
1872.0129130794944 50.000008132466064 281.25535080265763 
1885.4161426921223 50.00000806457774 288.96522664178156 
1898.7793027864054 50.00000799690588 296.65022303078786 
1912.1026603086711 50.000007929449566 304.3105017424232 
1925.3864800930473 50.000007862207895 311.94622325609 
1938.631024883292 50.000007795179954 319.55754677116784 
1951.8365553543567 50.000007728363926 327.14463022016025 
1965.0033295561211 50.0000086903774 334.7076292852871 
1978.13160524774 50.00000862397974 342.24670139869613 
1991.2216364438946 50.00000855779126 349.7619997714437 
2004.2736757547495 50.00000849180924 357.25367739691865 
2017.2879738256197 50.000008426031854 364.72188606504915 
2030.2647793570159 50.000008360459105 372.16677637453176 
2043.2043391244515 50.000008295087355 379.5884977449141 
2056.1068979980114 50.00000822991751 386.98719842852734 
2068.9726989616834 50.00000816494776 394.3630255222788 
2081.8019831324686 50.000008100176274 401.716124979308 
2094.594989779254 50.00000803560306 409.0466416204963 
2107.3519563414666 50.00000797122448 416.35471914584286 
2120.073118447506 50.000007907041436 423.64050014570876 
2132.758709932961 50.00000784305303 430.90412611192187 
2145.4089628586053 50.00000777925652 438.14573744875725 
2158.024107528189 50.00000771564919 445.3654734837828 
2170.6043725060113 50.00000765223467 452.563472478575 
2183.1499846343054 50.00000758900751 459.7398716393236 
2195.661169050395 50.00000752596861 466.8948071272889 
2208.138149203674 50.00000746311434 474.02841406916104 
2220.581146872368 50.00000740044652 481.1408265672735 
2232.9903821801213 50.000007337962415 488.23217770972315 
2245.3660736123747 50.00000727566112 495.30259958035185 
2257.7084380325628 50.00000721354172 502.3522232686246 
2270.0176906981205 50.00000715160331 509.38117887938824 
2282.2940452763096 50.000007089842256 516.389595542516 
2294.5377138598524 50.0000070282631 523.3776014224459 
2306.7489069824046 50.000006966858564 530.345323727609 
2318.9278336338284 50.00000690563047 537.29288871974 
2331.07470127531 50.00000684457882 544.2204217230947 
2343.189715854294 50.00000678369997 551.1280471335549 
2355.2730818192513 50.00000672299302 558.0158884276252 
2367.3250021342765 50.00000666245887 564.8840681713373 
2379.3456782935255 50.00000660209662 571.7327080290438 
2391.3353103354852 50.00000654190171 578.5619287721229 
2403.2940968570815 50.00000648187597 585.3718502875695 
2415.222235027628 50.00000642201849 592.1625915865011 
1359.1347797633907 50.00001061041894 1.3473670221510474 
1374.1615598378776 50.00001053395772 10.035066780054876 
1389.1371608486943 50.00001045777117 18.691292373362558 
1404.0619417166463 50.00001038185928 27.316260931329452 
1418.9362582635713 50.00001030621752 35.910187696083995 
1433.7604632466841 50.00001023084678 44.47328604349241 
1448.5349063924868 50.00001015574344 53.00576750377422 
1463.259934430223 50.00001008090658 61.50784178182312 
1477.9358911248978 50.00001000633256 69.97971677727764 
1492.5631173098645 50.000009932022294 78.42159860432002 
1507.1419509189918 50.000009857972145 86.833691611223 
1521.6727270184047 50.0000097841812 95.21619839963932 
1536.1557778378224 50.00000971064583 103.56931984364383 
1550.5914328014783 50.00000963736693 111.8932551085145 
1564.9800185586582 50.00000956434178 120.18820166930072 
1579.3218590138285 50.00000949156856 128.4543553291178 
1593.6172753563837 50.000009419046364 136.69191023722942 
1607.8665860900128 50.00000934677064 144.9010589068912 
1622.0701070616874 50.0000092747423 153.0819922329556 
1636.228151490283 50.00000920295952 161.23489950926978 
1650.3410299948305 50.000009131419574 169.35996844584224 
1664.409050622411 50.000009060122466 177.45738518578128 
1678.4325188756989 50.000008989064554 185.52733432203877 
1692.411737740149 50.00000891824584 193.5699989139248 
1706.3470077108482 50.00000884766541 201.58556050341758 
1720.2386268190253 50.000008777319636 209.57419913127615 
1734.0868906582245 50.00000870720669 217.53609335293913 
1747.8920924101526 50.00000863732657 225.4714202542218 
1761.6545228702048 50.00000856767838 233.38035546683386 
1775.3744704726673 50.00000849825847 241.2630731836798 
1789.0522213156078 50.00000842906593 249.11974617398755 
1802.6880591854542 50.000008360100765 256.9505457982377 
1816.282265581272 50.000008291360245 264.7556420229057 
1829.835119738735 50.00000822284255 272.53520343503624 
1843.3468986538064 50.00000815454587 280.2893972566144 
1856.8178771061184 50.0000080864711 288.0183893587755 
1870.2483276820758 50.00000801861552 295.72234427583953 
1883.638520797666 50.000007950977306 303.40142521916187 
1896.9887247209908 50.000007883553735 311.05579409082475 
1910.2992055945283 50.000007816345715 318.68561149715697 
1923.5702274571145 50.000007749351425 326.2910367620825 
1936.8020522656666 50.00000768256905 333.87222794032186 
1949.994939335585 50.000008644614354 341.42934083557066 
1963.1491476891943 50.000008578252164 348.9625329945002 
1976.2649325812213 50.00000851209643 356.47195774515603 
1989.3425478528507 50.00000844614806 363.9577681941546 
2002.3822453680514 50.000008380405234 371.4201162424979 
2015.3842750337626 50.00000831486523 378.8591525978318 
2028.3488848198413 50.00000824952804 386.27502678655947 
2041.2763207787716 50.000008184391845 393.6678871658132 
2054.166827065133 50.00000811945574 401.0378809352733 
2067.020645954844 50.00000805471882 408.38515414886206 
2079.83801786417 50.000007990179256 415.7098517262739 
2092.61918136851 50.000007925835234 423.0121174643982 
2105.364373220958 50.000007861685845 430.2920940485783 
2118.073828370644 50.00000779773018 437.54992306375243 
2130.747779980862 50.00000773396732 444.7857450054644 
2143.3864594469815 50.00000767039546 451.9996992907354 
2155.9900964141493 50.000007607013686 459.19192426881546 
2168.558918794783 50.000007543821994 466.36255723179966 
2181.093152785863 50.00000748081584 473.5117344251339 
2193.5930228860143 50.00000741799704 480.63959105797767 
2206.058751912401 50.00000735536287 487.7462613134703 
2218.490561017412 50.000007292913324 494.831878358852 
2230.8886697051626 50.00000723064568 501.89657435549 
2243.2532958478 50.00000716855993 508.9404804687683 
2255.58465570162 50.000007106655175 515.9637268778806 
2267.8829639230003 50.0000070449305 522.966442785495 
2280.1484335841487 50.00000698338317 529.94875642732 
2292.3812761886697 50.00000692201411 536.9107950815464 
2304.581701686956 50.000006860821486 543.8526850781968 
2316.749918491398 50.00000679980167 550.7745518083548 
2328.8861334914236 50.00000673895738 557.6765197332888 
2340.9905520683683 50.00000667828499 564.5587123934865 
2353.063378110173 50.00000661778449 571.4212524175664 
2365.10481402591 50.00000655745589 578.2642615310997 
2377.11506076016 50.000006497296454 585.0878605653338 
2389.0943178072093 50.000006437305274 591.8921694658065 
2401.042783225097 50.00000637748235 598.6773073008721 
2412.9606536494994 50.000006317824955 605.4433922701282 
1342.8422215079768 50.000010563305295 8.321052565426726 
1357.9039194001625 50.00001048687409 17.002694796621654 
1372.9141930040641 50.00001041071846 25.652862101399478 
1387.8734031644785 50.0000103348375 34.27177185211622 
1402.7819076063988 50.000010259227565 42.85963952973998 
1417.640060969633 50.00001018388684 51.41667874479026 
1432.4482148429697 50.00001010881442 59.943101258011666 
1447.2067177978943 50.00001003400848 68.43911700077297 
1461.915915421861 50.00000995946721 76.90493409519786 
1476.576150351134 50.000009885186046 85.3407588740356 
1491.187762303192 50.00000981116864 93.74679590025971 
1505.7510881087255 50.00000973740862 102.12324798643385 
1520.2664617432001 50.000009663905075 110.47031621380484 
1534.7342143580254 50.00000959065892 118.78819995115555 
1549.154674311314 50.0000095176656 127.0770968734223 
1563.5281671982461 50.00000944492331 135.33720298005392 
1577.8550158810363 50.00000937243294 143.5687126131479 
1592.135540518531 50.00000930018996 151.77181847535576 
1606.3700585954061 50.00000922819436 159.94671164754254 
1620.5588849510095 50.00000915644341 168.0935816062356 
1634.7023318078209 50.00000908493712 176.2126162408431 
1648.800708799562 50.00000901367184 184.30400187065788 
1662.8543229989382 50.00000894264758 192.36792326163777 
1676.8634789450361 50.00000887186161 200.40456364298097 
1690.8284786703725 50.000008801313015 208.41410472348616 
1704.749621727598 50.00000873099998 216.39672670770688 
1718.627205215872 50.000008660919775 224.352608311905 
1732.4615238068968 50.0000085910724 232.2819267797977 
1746.2528697706334 50.00000852145786 240.18485789811075 
1760.0015330006927 50.00000845207069 248.06157601194354 
1773.7078010394039 50.00000838291271 255.91225403992303 
1787.371959102582 50.00000831398029 263.7370634891913 
1800.9942901039767 50.00000824527251 271.5361744701877 
1814.5750746794215 50.00000817678938 279.3097557112578 
1828.1145912106895 50.000008108525435 287.0579745730847 
1841.613115849042 50.00000804048432 294.78099706292414 
1855.0709225385012 50.00000797266148 302.4789878486872 
1868.4882830388233 50.00000790505601 310.1521102728311 
1881.8654669482016 50.00000783766791 317.80052636608616 
1895.20274172568 50.00000777049354 325.42439686101807 
1908.500372713303 50.00000770353199 333.02388120541946 
1921.7586231579876 50.000007636783266 340.59913757553386 
1934.9777542331335 50.000007570244634 348.1503228891306 
1948.1580244784932 50.00000853253459 355.67759182687496 
1961.2996921502126 50.00000846641251 363.1811008129607 
1974.4030117436464 50.0000084004987 370.6610020732687 
1987.4682363490188 50.00000833478862 378.1174476191891 
2000.4956170872128 50.00000826928408 385.55058826663117 
2013.485403129865 50.00000820398054 392.96057364817625 
2026.4378417192092 50.00000813887891 400.347552225071 
2039.3531781876914 50.00000807397555 407.7116712990919 
2052.2316559773394 50.00000800927319 415.0530770242567 
2065.0735166589147 50.000007944767276 422.3719144184024 
2077.8789999508263 50.000007880458725 429.6683273746203 
2090.648343737823 50.000007816343896 436.94245867256086 
2103.3817840894676 50.00000775242188 444.1944499895999 
2116.079555278387 50.000007688692676 451.4244419118713 
2128.741889798311 50.000007625156286 458.6325739451768 
2141.3690183819026 50.00000756180816 465.81898452576206 
2153.9611700183655 50.00000749864921 472.98381103096017 
2166.51857197086 50.000007435678526 480.127189789725 
2179.041449793708 50.00000737289429 487.2492560930241 
2191.5300273494 50.00000731029377 494.3501442041261 
2203.9845268253944 50.000007247878784 501.42998736875234 
2216.4051687507404 50.0000071856457 508.4889178251251 
2228.7921720124878 50.000007123595424 515.5270668138883 
2241.145753871923 50.00000706172614 522.5445645879163 
2253.4661299806066 50.0000070000342 529.5415404220148 
2265.7535143962295 50.00000693852235 536.5181226224963 
2278.0081195982902 50.000006877186024 543.4744385366621 
2290.2301565035855 50.00000681602796 550.4106145621577 
2302.41983448153 50.000006755043614 557.3267761562397 
2314.5773613692954 50.00000669423389 564.2230478449164 
2326.7029434867827 50.00000663359697 571.0995532320017 
2338.796785651417 50.00000657313012 577.9564150080537 
2350.8590911927777 50.00000651283517 584.793754959213 
2362.890061967065 50.000006452710295 591.6116939759504 
2374.8898983713993 50.000006392753676 598.4103520617018 
2386.858799357961 50.00000633296531 605.1898483414134 
2398.7969624479697 50.00000627334248 611.9503010699909 
2410.704583745504 50.00000621388426 618.6918276406459 
1311.385665165461 50.00001059286569 6.5888771602667475 
1326.534486821577 50.0000105161871 15.296108047090456 
1341.6312718515246 50.00001043978773 23.971643876291637 
1356.676386212922 50.00001036366393 32.61570417965322 
1371.670192687237 50.000010287812984 41.2285065720007 
1386.6130509151435 50.000010212233974 49.810266772499745 
1401.505317431413 50.000010136925084 58.36119862567921 
1416.3473456993383 50.000010061883586 66.88151412216303 
1431.139486144716 50.00000998710857 75.37142341914205 
1445.8820861893687 50.000009912599126 83.83113486057118 
1460.5754902842446 50.00000983835071 92.26085499710007 
1475.2200399420694 50.00000976436422 100.66078860574635 
1489.8160737695835 50.000009690636034 109.0311387093152 
1504.3639274993543 50.00000961716614 117.37210659555603 
1518.8639340211798 50.00000954395091 125.68389183608451 
1533.316423413079 50.000009470989426 133.9666923050445 
1547.721722971889 50.00000939828169 142.22070419754073 
1562.080157243467 50.00000932582134 150.4461220478306 
1576.3920480524944 50.000009253612006 158.6431387472703 
1590.6577145319143 50.00000918164915 166.81194556205264 
1604.8774731519766 50.00000910993094 174.95273215069756 
1619.051637748922 50.00000903845739 183.0656865813271 
1633.180519553298 50.00000896722395 191.15099534872297 
1647.2644272179095 50.00000889623243 199.20884339115855 
1661.3036668454229 50.00000882548011 207.23941410702537 
1675.298542015615 50.000008754964256 215.2428893712431 
1689.2493538122785 50.00000868468396 223.2194495514659 
1703.156400849789 50.00000861463832 231.16927352407856 
1717.019979299338 50.000008544824595 239.09253868999986 
1730.8403829148347 50.000008475241884 246.98942099027772 
1744.6179030584844 50.000008405889275 254.86009492149697 
1758.3528287260492 50.00000833676313 262.70473355098693 
1772.0454465717867 50.00000826786527 270.5235085318436 
1785.6960409330895 50.00000819919114 278.3165901177681 
1799.3048938548063 50.00000813074075 286.0841471777094 
1812.8722851132707 50.00000806251228 293.8263472103381 
1826.3984922400286 50.0000079945039 301.5433563583292 
1839.8837905452724 50.000007926715625 309.2353394224792 
1853.3284531409886 50.00000785914381 316.9024598756423 
1866.7327509638208 50.00000779178936 324.54487987649463 
1880.0969527976517 50.00000772464864 332.1627602831368 
1893.4213252959048 50.00000765772256 339.75626066651785 
1906.7061330035845 50.0000075910084 347.32553932370865 
1919.9516383790342 50.00000752450342 354.8707532910039 
1933.1581012304828 50.00000848682612 362.39205736688837 
1946.3257810801688 50.000008420739505 369.88960808647244 
1959.4549336663968 50.00000835485935 377.3635577890418 
1972.5458133132897 50.000008289182915 384.8140585956753 
1985.5986723632345 50.00000822371203 392.2412614298455 
1998.6137611971244 50.00000815844305 399.6453160296078 
2011.591328254342 50.00000809337416 407.0263709596311 
2024.5316200525085 50.00000802850809 414.38457362308236 
2037.4348812070025 50.00000796383938 421.7200702733853 
2050.3013544502355 50.00000789936803 429.03300602581567 
2063.1312806507044 50.00000783509404 436.323524868978 
2075.9248988318186 50.00000777101286 443.5917696761362 
2088.6824461904976 50.000007707126315 450.83788221640407 
2101.404158115555 50.00000764343167 458.0620031658191 
2114.090268205863 50.00000757992893 465.26427211827377 
2126.7410082883034 50.00000751661537 472.4448275963168 
2139.3566084355025 50.0000074534928 479.6038070618333 
2151.93729698337 50.000007390554856 486.7413469266003 
2164.4833005484165 50.00000732780518 493.85758256270674 
2176.9948440448834 50.00000726524013 500.9526483128675 
2189.472150701663 50.000007202859706 508.0266775006021 
2201.915442079028 50.00000714066209 515.0798024403093 
2214.3249380851616 50.00000707864547 522.1121544472135 
2226.7008569924983 50.00000701680983 529.1238638471932 
2239.0434154538802 50.00000695515337 536.1150599865118 
2251.3528285185166 50.00000689367516 543.0858712414165 
2263.6293096477693 50.00000683237522 550.0364250276411 
2275.873070730754 50.00000677125081 556.966847809792 
2288.084322099757 50.00000671030193 563.8772651106242 
2300.263272545486 50.00000664952586 570.7678015202218 
2312.4101293321337 50.0000065889235 577.6385807050574 
2324.5250982122843 50.00000652849212 584.4897254169641 
2336.6083834416368 50.00000646823264 591.3213575019931 
2348.660187793572 50.00000640814142 598.1335979091805 
2360.6807125735445 50.00000634822118 604.9265666991982 
2372.670157633324 50.000006288465556 611.7003830529343 
2384.62872138506 50.00000622887819 618.4551652799432 
2396.556600815207 50.00000616945454 625.1910308268289 
2408.453991498274 50.00000611019823 631.9080962855141 
2420.321087610438 50.00000605110199 638.6064774014312 
1279.7901093419264 50.00001062263891 4.838662066108554 
1295.0270948365196 50.00001054571294 13.571655318645753 
1310.2114230287807 50.00001046906618 22.27273111307204 
1325.3434650808667 50.00001039269773 30.942111170268618 
1340.423588921255 50.00001031660395 39.58001526816679 
1355.452159280851 50.00001024078392 48.18666126339576 
1370.4295377286203 50.000010165236745 56.762265112661225 
1385.3560827067472 50.00001008995969 65.30704089382562 
1400.2321495653314 50.00001001495002 73.82120082672463 
1415.058090596624 50.00000994020775 82.30495529368909 
1429.8342550688212 50.000009865729226 90.75851285982753 
1444.5609892594039 50.00000979151355 99.18208029300513 
1459.2386364880526 50.000009717558896 107.57586258359515 
1473.8675371491254 50.00000964386345 115.9400629639531 
1488.4480287437177 50.00000957042539 124.27488292764156 
1502.9804459112997 50.00000949724199 132.58052224840594 
1517.46512046095 50.00000942431325 140.8571789989046 
1531.9023814021816 50.000009351637345 149.10504956919522 
1546.2925549753727 50.000009279210644 157.3243286849829 
1560.6359646818019 50.000009207034054 165.51520942563275 
1574.932931313299 50.00000913510394 173.67788324195317 
1589.1837729815206 50.000009063417565 181.81253997374824 
1603.3888051468393 50.000008991977666 189.91936786713904 
1617.548340646883 50.00000892077787 197.99855359168487 
1631.6626897246847 50.000008849820915 206.050282257258 
1645.732160056505 50.000008779100426 214.07473743073024 
1659.757056779274 50.000008708618225 222.0721011524247 
1673.737682517703 50.00000863837158 230.04255395237305 
1687.6743374110506 50.00000856835959 237.98627486637088 
1701.5673191395458 50.00000849857861 245.9034414518137 
1715.4169229504855 50.00000842903046 253.79422980334766 
1729.2234416840047 50.0000083597115 261.6588145683254 
1742.987165798516 50.00000829061901 269.4973689620556 
1756.7083833958404 50.00000822175389 277.3100647828678 
1770.387380246023 50.00000815311432 285.09707242699824 
1784.0244398118361 50.00000808469849 292.85856090327707 
1797.6198432729816 50.00000801650458 300.5946978476386 
1811.173869549994 50.000007948529856 308.3056495374549 
1824.6867953278456 50.00000788077432 315.9915809056856 
1838.1588950792602 50.00000781323797 323.6526555548562 
1851.5904410877479 50.00000774591717 331.2890357708666 
1864.9817034703442 50.000007678811016 338.90088253662816 
1878.332950200081 50.00000761191859 346.48835554552716 
1891.6444471281784 50.00000754523808 354.0516132147377 
1904.9164580059673 50.000007478768566 361.59081269835497 
1918.1492439180993 50.00000844112583 369.10610891196757 
1931.3430656607784 50.000008375072866 376.59765850088115 
1944.4981802230295 50.00000830922727 384.0656139170678 
1957.6148431705615 50.00000824358631 391.51012739057114 
1970.6933080748754 50.00000817814907 398.9313499517157 
1983.7338265336389 50.000008112916476 406.32943144331057 
1996.7366481908225 50.00000804788306 413.7045205327295 
2009.7020207565847 50.00000798304973 421.0567647238213 
2022.6301900269254 50.00000791841467 428.38631036869447 
2035.5213999031062 50.000007853978786 435.69330267935675 
2048.375892410833 50.00000778973936 442.97788573921025 
2061.193907719216 50.00000772569274 450.24020251442107 
2073.975684159499 50.000007661841664 457.4803948651361 
2086.7214582435763 50.00000759818158 464.69860355658966 
2099.4314646822777 50.000007534713404 471.89496827005314 
2112.1059364034477 50.00000747143531 479.06962761367777 
2124.745104569812 50.00000740834639 486.22271913319764 
2137.3491985966275 50.00000734544392 493.354379322509 
2149.9184461691266 50.0000072827288 500.464743634122 
2162.4530732597673 50.00000722019831 507.55394648950005 
2174.9533041452664 50.00000715785245 514.622121289266 
2187.4193614234487 50.00000709569031 521.6694004232968 
2199.851466029891 50.00000703370824 528.6959152807021 
2212.249837254374 50.00000697190808 535.7017962596765 
2224.6146927571494 50.00000691028799 542.6871727772482 
2236.9462485850145 50.00000684884344 549.6521732789147 
2249.2447191871993 50.00000678757897 556.5969252481536 
2261.5103174310775 50.00000672648912 563.5215552158447 
2273.7432546176915 50.0000066655748 570.4261887695643 
2285.943740497101 50.0000066048342 577.3109505627849 
2298.111983283558 50.0000065442664 584.1759643239652 
2310.2481896705035 50.0000064838714 591.0213528655331 
2322.3525648454042 50.00000642364648 597.8472380927778 
2334.4253125044047 50.00000636359073 604.6537410126225 
2346.4666348668275 50.00000630370323 611.4409817423134 
2358.476732689502 50.00000624398308 618.2090795180006 
2370.4558052809334 50.000006184430276 624.9581527032296 
2382.404050515311 50.000006125043 631.6883187973267 
2394.3216648463617 50.000006065820344 638.3996944437008 
2406.208843321042 50.000006006760486 645.0923954380428 
2418.0657795930842 50.00000594786343 651.7665367364375 
1248.0537521246856 50.00001065262586 3.0705288009176 
1263.3799549590344 50.00001057544887 11.82945983913487 
1278.652871327824 50.00001049855382 20.556248719815812 
1293.872877691379 50.00001042193708 29.251119383127843 
1309.0403472175944 50.00001034560046 37.91429379983401 
1324.155649818823 50.0000102695376 46.5459919933337 
1339.2191521882587 50.00001019375122 55.14643206137498 
1354.2312178358534 50.00001011823497 63.71583019751142 
1369.1922071237395 50.00001004298974 72.25440071224693 
1384.1024773012023 50.00000996801282 80.76235605392412 
1398.9623825391827 50.00000989330147 89.23990682932163 
1413.772273964321 50.00000981885569 97.68726182398495 
1428.532499692567 50.00000974467275 106.10462802229358 
1443.2434048623404 50.00000967074902 114.49221062726247 
1457.905331667257 50.00000959708632 122.85021308008072 
1472.5186193884401 50.000009523681 131.17883707940564 
1487.0836044263942 50.00000945053125 139.47828260039296 
1501.6006203324805 50.00000937763616 147.74874791349248 
1516.0699978399775 50.00000930499209 155.99042960299084 
1530.492064894739 50.00000923259904 164.20352258531602 
1544.8671466854626 50.00000916045428 172.3882201271099 
1559.1955656735627 50.00000908855782 180.54471386306523 
1573.4776416226641 50.000009016906915 188.67319381353445 
1587.7136916277204 50.00000894549794 196.7738484019128 
1601.904030143748 50.000008874333616 204.8468644717932 
1616.0489690142126 50.00000880340758 212.89242730391743 
1630.1488174990363 50.00000873272256 220.91072063288993 
1644.2038823022617 50.00000866227401 228.9019266637024 
1658.214467599361 50.00000859206011 236.866226088031 
1672.1808750641949 50.00000852208086 244.80379810033082 
1686.103403895644 50.00000845233535 252.71482041373747 
1699.982350843894 50.00000838282085 260.59946927575675 
1713.818010236393 50.000008313535545 268.45791948376336 
1727.6106740034884 50.00000824447852 276.29034440030046 
1741.3606317037375 50.000008175647054 284.09691596819266 
1755.0681705489033 50.00000810704114 291.8778047254664 
1768.7335754286446 50.00000803865896 299.633179820089 
1782.3571289348943 50.0000079704987 307.36320902451826 
1795.939111385932 50.000007902559446 315.0680587500765 
1809.4798008501702 50.00000783483847 322.7478940611445 
1822.9794731696315 50.000007767335774 330.4028786891786 
1836.438401983155 50.00000770004954 338.03317504656025 
1849.8568587492996 50.00000763297794 345.63894424026694 
1863.2351127689776 50.000007566120075 353.22034608538524 
1876.573431207808 50.00000749947503 360.77753911844684 
1889.8720791181963 50.00000743303917 368.31068061061524 
1903.1313188692152 50.000008395431905 375.819925593838 
1916.351412538947 50.000008329413504 383.3054308228802 
1929.532618374957 50.00000826360247 390.76734886165923 
1942.6751931922759 50.000008197996976 398.205832048453 
1955.7793917991676 50.0000081325943 405.62103151969677 
1968.8454670176397 50.000008067395356 413.01309722222504 
1981.8736697037325 50.00000800239741 420.38217792537944 
1994.8642487675393 50.00000793759955 427.72842123295595 
2007.8174511930042 50.00000787299996 435.0519735950229 
2020.7335220574782 50.00000780859773 442.3529803195879 
2033.6127045510343 50.00000774439286 449.63158558412397 
2046.4552399955683 50.00000768038262 456.8879324469717 
2059.261367863655 50.00000761656611 464.1221628585863 
2072.031325797198 50.00000755294241 471.3344176726714 
2084.7653496258426 50.00000748950788 478.52483665716136 
2097.463673385182 50.00000742626435 485.6935585050869 
2110.126529334745 50.0000073632109 492.8407208453091 
2122.754147975779 50.000007300344805 499.9664602531293 
2135.3467580688057 50.00000723766425 507.0709122607632 
2147.9045866509973 50.00000717517014 514.1542113677069 
2160.427859053328 50.00000711285884 521.2164910509746 
2172.916798917535 50.000007050731256 528.2578837752144 
2185.3716282128835 50.00000698878466 535.27852100271 
2197.7925672527313 50.00000692701906 542.2785332032645 
2210.179834710905 50.000006865432624 549.2580498639718 
2222.533647637886 50.00000680402627 556.2171994988662 
2234.8542214768136 50.00000674279636 563.1561096584787 
2247.1417700792936 50.00000668174198 570.0749069392587 
2259.396505721035 50.00000662086222 576.9737169929072 
2271.6186391173046 50.00000656015709 583.8526645355928 
2283.8083794382014 50.00000649962476 590.7118733570637 
2295.965934323762 50.000006439263416 597.5514663296585 
2308.0915098988876 50.000006379073966 604.371565417206 
2320.1853107881084 50.00000631905368 611.1722916838385 
2332.247540130172 50.000006259201655 617.9537653026873 
2344.278399592474 50.000006199516974 624.7161055644879 
2356.278089385319 50.00000613999964 631.4594308860915 
2368.246808276029 50.000006080647836 638.1838588188734 
2380.184753602883 50.00000602145883 644.8895060570503 
2392.092121288907 50.00000596243535 651.5764884458995 
2403.9691058555068 50.000005903573765 658.2449209898932 
2415.8159004359477 50.00000584487316 664.8949178607336 
1216.1747707817276 50.00001068282472 1.284598925307364 
1231.5912581232292 50.0000106053958 10.069644896855607 
1246.9538211970635 50.00001052824973 18.82232168237715 
1262.2628418573008 50.000010451385606 27.542855472004703 
1277.5186986055924 50.000010374802514 36.23147045958376 
1292.721766628843 50.00001029849682 44.88838886506437 
1307.872417836379 50.00001022246579 53.5138309565973 
1322.9710208966235 50.00001014671125 62.108015072341004 
1338.0179412732896 50.000010071226825 70.6711576419766 
1353.0135412610816 50.00000999601252 79.2034732079328 
1367.9581800209307 50.00000992106925 87.70517444633151 
1382.8522136147767 50.00000984638973 96.1764721876707 
1397.6959950398664 50.00000977197578 104.61757543720523 
1412.4898742626256 50.00000969782559 113.02869139509221 
1427.2341982520747 50.00000962393642 121.41002547625067 
1441.9293110128096 50.00000955030646 129.76178132996756 
1456.575553617553 50.00000947693388 138.08416085925 
1471.1732642392808 50.000009403816875 146.37736423992192 
1485.7227781829338 50.00000933095362 154.64158993947603 
1500.2244279167126 50.0000092583432 162.87703473567763 
1514.6785431029762 50.00000918598471 171.08389373492628 
1529.0854506287324 50.0000091138736 179.2623603903903 
1543.4454746357446 50.00000904200988 187.41262651989564 
1557.7589365502427 50.00000897039263 195.5348823235854 
1572.026155112263 50.0000088990173 203.62931640136867 
1586.2474464046018 50.00000882788572 211.69611577012074 
1600.4231238814077 50.00000875699425 219.73546588068348 
1614.5534983964103 50.00000868634288 227.74755063464636 
1628.6388782307831 50.00000861592798 235.73255240090384 
1642.6795691206562 50.00000854574955 243.69065203200807 
1656.6758742842844 50.00000847580486 251.62202888032243 
1670.6280944488685 50.000008406093 259.52686081395404 
1684.5365278770387 50.000008336612154 267.40532423250716 
1698.401470393007 50.0000082673605 275.25759408261456 
1712.2232154083908 50.00000819833804 283.0838438732908 
1726.002053947711 50.00000812954204 290.88424569109065 
1739.7382746735775 50.000008060969776 298.65897021507135 
1753.4321639115506 50.00000799262216 306.4081867315699 
1767.084005674707 50.00000792449737 314.1320631488061 
1780.6940816878878 50.000007856591765 321.8307660112914 
1794.2626714116536 50.00000778890626 329.504460514062 
1807.790052065944 50.000007721438124 337.1533105167473 
1821.276498653439 50.00000765418645 344.77747855744565 
1834.7222839826386 50.00000758714941 352.37712586644284 
1848.127678690661 50.00000752032611 359.9524123797628 
1861.4929512657532 50.000007453714716 367.50349675254074 
1874.8183680695338 50.000007387315236 375.03053637224184 
1888.1041927635401 50.00000834974253 382.5336863864213 
1901.3506887156932 50.0000082837596 390.0131036585435 
1914.5581154399647 50.00000821798312 397.4689408637205 
1927.7267310084903 50.0000081524131 404.90135044770705 
1940.8567914739865 50.00000808704681 412.3104836522971 
1953.9485508904168 50.00000802188151 419.69649052759814 
1967.0022613334104 50.000007956919035 427.05951994416864 
1980.0181729204428 50.000007892155736 434.3997196050059 
1992.996533830763 50.00000782759162 441.7172360573859 
2005.9375903250884 50.00000776322577 449.0122147045695 
2018.841586765067 50.00000769905546 456.2847998173611 
2031.7087656324998 50.00000763508069 463.5351345455265 
2044.5393675483424 50.00000757129874 470.7633609290933 
2057.333631291474 50.0000075077096 477.96961990948967 
2070.091793817252 50.00000744431145 485.15405134057437 
2082.8140902758396 50.0000073811043 492.3167939995237 
2095.500754030321 50.00000731808541 499.4579855975917 
2108.1520166746027 50.000007255254786 506.57776279074824 
2120.7681080511074 50.0000071926097 513.676261190185 
2133.349256268253 50.00000713015015 520.7536153727033 
2145.8956877177366 50.00000706787432 527.8099588909781 
2158.407627091607 50.00000700578221 534.8454242837029 
2170.885297399147 50.000006943871995 541.8601430856138 
2183.3289199835544 50.00000688214186 548.8542458374013 
2195.7387145384305 50.00000682059181 555.8278620955011 
2208.1148991240766 50.000006759219104 562.7811204417767 
2220.457690183606 50.00000669802375 569.7141484930867 
2232.767302558864 50.00000663700666 576.6270729107409 
2245.0439495061737 50.00000657616238 583.5200194098552 
2257.28784271189 50.000006515492714 590.3931127685828 
2269.499192307785 50.000006454995855 597.2464768372579 
2281.67820688625 50.00000639466998 604.0802345474203 
2293.825093515329 50.000006334516 610.8945079207438 
2305.9400577535803 50.00000627453119 617.689418077864 
2318.0233036647683 50.00000621471372 624.4650852471 
2330.0750338323837 50.00000615506633 631.2216287730776 
