# .PCD v0.7 - Point Cloud Data file format
VERSION 0.7
FIELDS x y z pan tilt range componentInx shellInx faceInx
SIZE 4 4 4 4 4 4 4 4 4
TYPE F F F F F F I I I
COUNT 1 1 1 1 1 1 1 1 1
WIDTH 667
HEIGHT 1
VIEWPOINT 57372.8 -37417.5 2010.7 0.3337 0.349591 0.615304 0.622761
POINTS 667
DATA ascii
30288.758 357.09766 3604.4634 -0.059850559 0.009449807 46508.141 23 0 3
30288.758 385.04297 3605.2397 -0.05950056 0.009449807 46530.867 23 0 3
30288.758 -3.7578125 3610.6274 -0.064400539 0.0097998073 46215.742 23 0 3
30288.758 23.84375 3611.4014 -0.06405054 0.0097998073 46238.109 23 0 3
30288.758 134.49609 3614.5049 -0.062650546 0.0097998073 46327.867 23 0 3
30288.758 162.22656 3615.2827 -0.062300548 0.0097998073 46350.379 23 0 3
30288.758 189.98438 3616.0615 -0.061950549 0.0097998073 46372.91 23 0 3
30288.758 441.02734 3623.1069 -0.058800563 0.0097998073 46576.977 23 0 3
30288.758 -3.7539062 3626.813 -0.064400539 0.010149808 46216.305 23 0 3
30288.758 23.839844 3627.5945 -0.06405054 0.010149808 46238.672 23 0 3
30288.758 79.117188 3629.1606 -0.063350543 0.010149808 46283.5 23 0 3
30288.758 134.5 3630.7295 -0.062650546 0.010149808 46328.43 23 0 3
30288.758 329.18359 3636.2478 -0.060200557 0.010149808 46486.57 23 0 3
30288.758 413.02734 3638.625 -0.059150562 0.010149808 46554.758 23 0 3
30288.758 79.117188 3645.3701 -0.063350543 0.010499808 46284.07 23 0 3
30288.758 217.78125 3649.3384 -0.061600551 0.010499808 46396.617 23 0 3
30288.758 51.46875 3660.7805 -0.063700542 0.010849808 46262.219 23 0 3
30288.758 134.50391 3663.1802 -0.062650546 0.010849808 46329.582 23 0 3
30288.758 217.78125 3665.5879 -0.061600551 0.010849808 46397.195 23 0 3
30288.758 273.42578 3667.1968 -0.060900554 0.010849808 46442.402 23 0 3
30288.758 329.19141 3668.8091 -0.060200557 0.010849808 46487.727 23 0 3
30288.758 385.0625 3670.425 -0.05950056 0.010849808 46533.16 23 0 3
30288.758 413.03906 3671.2344 -0.059150562 0.010849808 46555.918 23 0 3
30288.758 -3.7539062 3675.3716 -0.064400539 0.011199809 46218.031 23 0 3
30288.758 162.23828 3680.2158 -0.062300548 0.011199809 46352.676 23 0 3
30288.758 273.43359 3683.4624 -0.060900554 0.011199809 46442.992 23 0 3
30288.758 441.04688 3688.3579 -0.058800563 0.011199809 46579.293 23 0 3
30288.758 -3.75 3691.5586 -0.064400539 0.011549809 46218.617 23 0 3
30288.758 79.125 3694.0005 -0.063350543 0.011549809 46285.82 23 0 3
30288.758 134.50391 3695.6323 -0.062650546 0.011549809 46330.754 23 0 3
30288.758 217.78516 3698.0874 -0.061600551 0.011549809 46398.371 23 0 3
30288.758 245.59766 3698.9072 -0.061250553 0.011549809 46420.961 23 0 3
30288.758 273.43359 3699.7283 -0.060900554 0.011549809 46443.582 23 0 3
30288.758 301.30078 3700.5498 -0.060550556 0.011549809 46466.227 23 0 3
30288.758 329.19922 3701.3726 -0.060200557 0.011549809 46488.906 23 0 3
30288.758 357.12109 3702.1958 -0.059850559 0.011549809 46511.609 23 0 3
30288.758 385.07031 3703.02 -0.05950056 0.011549809 46534.344 23 0 3
30288.758 441.05078 3704.6714 -0.058800563 0.011549809 46579.891 23 0 3
30288.758 217.78906 3714.3379 -0.061600551 0.011899809 46398.969 23 0 3
30288.758 273.44141 3715.9946 -0.060900554 0.011899809 46444.184 23 0 3
30288.758 23.847656 3724.7627 -0.06405054 0.01224981 46242.18 23 0 3
30288.758 79.128906 3726.4229 -0.063350543 0.01224981 46287.012 23 0 3
30288.758 162.24609 3728.9199 -0.062300548 0.01224981 46354.465 23 0 3
30288.758 217.78906 3730.5889 -0.061600551 0.01224981 46399.57 23 0 3
30288.758 329.20703 3733.9375 -0.060200557 0.01224981 46490.109 23 0 3
30288.758 441.05469 3737.3 -0.058800563 0.01224981 46581.094 23 0 3
30288.758 -3.75 3740.1223 -0.064400539 0.01259981 46220.41 23 0 3
30288.758 23.847656 3740.959 -0.06405054 0.01259981 46242.785 23 0 3
30288.758 190.00391 3745.9973 -0.061950549 0.01259981 46377.605 23 0 3
30288.758 217.79297 3746.8401 -0.061600551 0.01259981 46400.176 23 0 3
30288.758 245.60547 3747.6836 -0.061250553 0.01259981 46422.77 23 0 3
30288.758 357.13281 3751.0679 -0.059850559 0.01259981 46513.426 23 0 3
30288.758 441.0625 3753.615 -0.058800563 0.01259981 46581.707 23 0 3
30288.758 -3.7460938 3756.311 -0.064400539 0.01294981 46221.02 23 0 3
30288.758 23.847656 3757.1553 -0.06405054 0.01294981 46243.391 23 0 3
30288.758 134.51172 3760.5425 -0.062650546 0.01294981 46333.168 23 0 3
30288.758 190.00781 3762.2412 -0.061950549 0.01294981 46378.219 23 0 3
30288.758 329.21484 3766.5039 -0.060200557 0.01294981 46491.332 23 0 3
30288.758 441.07031 3769.9302 -0.058800563 0.01294981 46582.324 23 0 3
30288.758 79.132812 3775.0601 -0.063350543 0.013299811 46288.848 23 0 3
30288.758 190.00781 3778.4854 -0.061950549 0.013299811 46378.836 23 0 3
30288.758 217.79688 3779.3442 -0.061600551 0.013299811 46401.406 23 0 3
30288.758 301.32422 3781.9255 -0.060550556 0.013299811 46469.273 23 0 3
30288.758 357.14062 3783.6509 -0.059850559 0.013299811 46514.66 23 0 3
30288.758 -3.75 3788.6899 -0.064400539 0.013649811 46222.258 23 0 3
30288.758 51.476562 3790.4111 -0.063700542 0.013649811 46267.035 23 0 3
30288.758 245.61719 3796.4644 -0.061250553 0.013649811 46424.629 23 0 3
30288.758 273.45312 3797.3325 -0.060900554 0.013649811 46447.25 23 0 3
30288.758 329.21875 3799.0723 -0.060200557 0.013649811 46492.578 23 0 3
30288.758 385.09375 3800.8154 -0.05950056 0.013649811 46538.023 23 0 3
30288.758 51.480469 3806.6167 -0.063700542 0.013999811 46267.66 23 0 3
30288.758 134.52344 3809.229 -0.062650546 0.013999811 46335.039 23 0 3
30288.758 245.62109 3812.7251 -0.061250553 0.013999811 46425.258 23 0 3
30288.758 385.09766 3817.1162 -0.05950056 0.013999811 46538.656 23 0 3
30288.758 441.08594 3818.8794 -0.058800563 0.013999811 46584.211 23 0 3
30288.758 -3.7460938 3821.0701 -0.064400539 0.014349812 46223.508 23 0 3
30288.758 51.480469 3822.823 -0.063700542 0.014349812 46268.293 23 0 3
30288.758 134.51953 3825.459 -0.062650546 0.014349812 46335.672 23 0 3
30288.758 245.62109 3828.9868 -0.061250553 0.014349812 46425.891 23 0 3
30288.758 329.23047 3831.6421 -0.060200557 0.014349812 46493.848 23 0 3
30288.758 134.52344 3841.689 -0.062650546 0.014699812 46336.309 23 0 3
30288.758 245.625 3845.2485 -0.061250553 0.014699812 46426.539 23 0 3
30288.758 273.46484 3846.1406 -0.060900554 0.014699812 46449.164 23 0 3
30288.758 357.15625 3848.8232 -0.059850559 0.014699812 46517.207 23 0 3
30288.758 441.08984 3851.5142 -0.058800563 0.014699812 46585.496 23 0 3
30288.758 23.855469 3854.3442 -0.06405054 0.015049812 46247.172 23 0 3
30288.758 51.480469 3855.2363 -0.063700542 0.015049812 46269.574 23 0 3
30288.758 79.136719 3856.1301 -0.063350543 0.015049812 46292.012 23 0 3
30288.758 273.46875 3862.4106 -0.060900554 0.015049812 46449.809 23 0 3
30288.758 357.16406 3865.1172 -0.059850559 0.015049812 46517.855 23 0 3
30288.758 413.08984 3866.9263 -0.059150562 0.015049812 46563.355 23 0 3
30288.758 -3.7421875 3869.6443 -0.064400539 0.015399813 46225.441 23 0 3
30288.758 51.484375 3871.4441 -0.063700542 0.015399813 46270.223 23 0 3
30288.758 162.25781 3875.0552 -0.062300548 0.015399813 46360.121 23 0 3
30288.758 301.33984 3879.5906 -0.060550556 0.015399813 46473.113 23 0 3
30288.758 357.16797 3881.4116 -0.059850559 0.015399813 46518.508 23 0 3
30288.758 441.10156 3884.1509 -0.058800563 0.015399813 46586.805 23 0 3
30288.758 23.859375 3886.7437 -0.06405054 0.015749812 46248.477 23 0 3
30288.758 190.02734 3892.2075 -0.061950549 0.015749812 46383.324 23 0 3
30288.758 357.16797 3897.7065 -0.059850559 0.015749812 46519.168 23 0 3
30288.758 245.63672 3910.3005 -0.061250553 0.016099812 46429.164 23 0 3
30288.758 301.35156 3912.1494 -0.060550556 0.016099812 46474.441 23 0 3
30288.758 329.25 3913.0752 -0.060200557 0.016099812 46497.125 23 0 3
30288.758 385.125 3914.9302 -0.05950056 0.016099812 46542.574 23 0 3
30288.758 51.488281 3920.0696 -0.063700542 0.016449813 46272.211 23 0 3
30288.758 106.82812 3921.9204 -0.063000545 0.016449813 46317.109 23 0 3
30288.758 134.53516 3922.8472 -0.062650546 0.016449813 46339.598 23 0 3
30288.758 162.26953 3923.7751 -0.062300548 0.016449813 46362.117 23 0 3
30288.758 245.64062 3926.5649 -0.061250553 0.016449813 46429.832 23 0 3
30288.758 23.859375 3935.3469 -0.06405054 0.016799813 46250.473 23 0 3
30288.758 134.53516 3939.0801 -0.062650546 0.016799813 46340.27 23 0 3
30288.758 162.27344 3940.0161 -0.062300548 0.016799813 46362.789 23 0 3
30288.758 217.82422 3941.8906 -0.061600551 0.016799813 46407.91 23 0 3
30288.758 273.48828 3943.769 -0.060900554 0.016799813 46453.137 23 0 3
30288.758 329.25781 3945.6519 -0.060200557 0.016799813 46498.477 23 0 3
30288.758 385.13672 3947.5386 -0.05950056 0.016799813 46543.93 23 0 3
30288.758 413.12109 3948.4834 -0.059150562 0.016799813 46566.695 23 0 3
30288.758 106.82812 3954.3711 -0.063000545 0.017149813 46318.461 23 0 3
30288.758 134.53906 3955.3135 -0.062650546 0.017149813 46340.949 23 0 3
30288.758 190.03906 3957.2021 -0.061950549 0.017149813 46386.016 23 0 3
30288.758 217.82812 3958.1479 -0.061600551 0.017149813 46408.59 23 0 3
30288.758 273.48828 3976.3157 -0.060900554 0.017499814 46454.508 23 0 3
30288.758 301.36328 3977.2725 -0.060550556 0.017499814 46477.164 23 0 3
30288.758 217.83594 3990.6636 -0.061600551 0.017849814 46409.973 23 0 3
30288.758 301.36719 3993.5544 -0.060550556 0.017849814 46477.859 23 0 3
30288.758 357.19141 3995.4868 -0.059850559 0.017849814 46523.262 23 0 3
30288.758 273.5 4008.8643 -0.060900554 0.018199814 46455.906 23 0 3
30288.758 301.37109 4009.8369 -0.060550556 0.018199814 46478.562 23 0 3
30288.758 329.27344 4010.8105 -0.060200557 0.018199814 46501.246 23 0 3
30288.758 385.14844 4012.7612 -0.05950056 0.018199814 46546.703 23 0 3
30288.758 413.12891 4013.7378 -0.059150562 0.018199814 46569.473 23 0 3
30288.758 -3.7382812 4015.3916 -0.064400539 0.018549815 46231.535 23 0 3
30288.758 134.54688 4020.2524 -0.062650546 0.018549815 46343.727 23 0 3
30288.758 217.83594 4023.1814 -0.061600551 0.018549815 46411.375 23 0 3
30288.758 273.50391 4025.1394 -0.060900554 0.018549815 46456.609 23 0 3
30288.758 385.15234 4029.0679 -0.05950056 0.018549815 46547.41 23 0 3
30288.758 413.13672 4030.0527 -0.059150562 0.018549815 46570.18 23 0 3
30288.758 162.28516 4037.4714 -0.062300548 0.018899815 46366.957 23 0 3
30288.758 79.15625 4050.7458 -0.063350543 0.019249815 46300.191 23 0 3
30288.758 134.55078 4052.7249 -0.062650546 0.019249815 46345.152 23 0 3
30288.758 190.05469 4054.708 -0.061950549 0.019249815 46390.223 23 0 3
30288.758 217.83984 4055.7012 -0.061600551 0.019249815 46412.797 23 0 3
30288.758 329.28125 4059.6851 -0.060200557 0.019249815 46503.383 23 0 3
30288.758 385.16406 4061.6831 -0.05950056 0.019249815 46548.84 23 0 3
30288.758 190.05469 4087.2139 -0.061950549 0.019949816 46391.672 23 0 3
30288.758 245.67188 4089.2329 -0.061250553 0.019949816 46436.855 23 0 3
30288.758 273.51172 4090.2446 -0.060900554 0.019949816 46459.488 23 0 3
30288.758 329.28906 4092.27 -0.060200557 0.019949816 46504.84 23 0 3
30288.758 357.21484 4093.2847 -0.059850559 0.019949816 46527.555 23 0 3
30288.758 413.15625 4095.3174 -0.059150562 0.019949816 46573.07 23 0 3
30288.758 -3.734375 4096.3794 -0.064400539 0.020299817 46235.125 23 0 3
30288.758 23.871094 4097.3887 -0.06405054 0.020299817 46257.512 23 0 3
30288.758 385.17969 4110.6099 -0.05950056 0.020299817 46551.039 23 0 3
30288.758 413.16016 4111.6343 -0.059150562 0.020299817 46573.805 23 0 3
30288.758 23.878906 4113.5957 -0.06405054 0.020649817 46258.246 23 0 3
30288.758 162.29688 4118.6978 -0.062300548 0.020649817 46370.586 23 0 3
30288.758 190.0625 4119.7217 -0.061950549 0.020649817 46393.141 23 0 3
30288.758 273.52344 4122.7998 -0.060900554 0.020649817 46460.961 23 0 3
30288.758 329.29297 4124.8574 -0.060200557 0.020649817 46506.312 23 0 3
30288.758 357.22656 4125.8882 -0.059850559 0.020649817 46529.031 23 0 3
30288.758 413.16406 4127.9521 -0.059150562 0.020649817 46574.551 23 0 3
30288.758 441.17578 4128.9858 -0.058800563 0.020649817 46597.348 23 0 3
30288.758 190.06641 4135.9766 -0.061950549 0.020999817 46393.883 23 0 3
30288.758 273.52344 4139.0786 -0.060900554 0.020999817 46461.707 23 0 3
30288.758 301.40234 4140.1143 -0.060550556 0.020999817 46484.367 23 0 3
30288.758 441.17578 4145.3125 -0.058800563 0.020999817 46598.098 23 0 3
30288.758 23.875 4146.0112 -0.06405054 0.021349818 46259.734 23 0 3
30288.758 51.503906 4147.0454 -0.063700542 0.021349818 46282.148 23 0 3
30288.758 79.164062 4148.0801 -0.063350543 0.021349818 46304.59 23 0 3
30288.758 190.06641 4152.2319 -0.061950549 0.021349818 46394.637 23 0 3
30288.758 217.85938 4153.2725 -0.061600551 0.021349818 46417.215 23 0 3
30288.758 273.53125 4155.3574 -0.060900554 0.021349818 46462.461 23 0 3
30288.758 357.23438 4158.4932 -0.059850559 0.021349818 46530.531 23 0 3
30288.758 413.17188 4160.5894 -0.059150562 0.021349818 46576.051 23 0 3
30288.758 79.164062 4164.3047 -0.063350543 0.021699818 46305.344 23 0 3
30288.758 329.30859 4173.7427 -0.060200557 0.021699818 46508.57 23 0 3
30288.758 134.56641 4182.6343 -0.062650546 0.022049818 46351.07 23 0 3
30288.758 301.40625 4188.9771 -0.060550556 0.022049818 46486.641 23 0 3
30288.758 413.17969 4193.229 -0.059150562 0.022049818 46577.574 23 0 3
30288.758 106.85156 4197.8145 -0.063000545 0.022399819 46329.336 23 0 3
30288.758 245.69141 4203.1313 -0.061250553 0.022399819 46442.109 23 0 3
30288.758 357.24609 4207.4053 -0.059850559 0.022399819 46532.824 23 0 3
30288.758 385.19922 4208.4771 -0.05950056 0.022399819 46555.574 23 0 3
30288.758 -3.7226562 4209.7842 -0.064400539 0.022749819 46240.387 23 0 3
30288.758 106.85938 4214.0479 -0.063000545 0.022749819 46330.105 23 0 3
30288.758 217.87109 4218.3311 -0.061600551 0.022749819 46420.273 23 0 3
30288.758 301.41797 4221.5552 -0.060550556 0.022749819 46488.184 23 0 3
30288.758 329.32031 4222.6323 -0.060200557 0.022749819 46510.875 23 0 3
30288.758 413.19531 4225.8706 -0.059150562 0.022749819 46579.121 23 0 3
30288.758 -3.7265625 4225.9868 -0.064400539 0.023099819 46241.156 23 0 3
30288.758 51.515625 4228.1323 -0.063700542 0.023099819 46285.965 23 0 3
30288.758 79.171875 4229.2065 -0.063350543 0.023099819 46308.414 23 0 3
30288.758 134.57422 4231.3594 -0.062650546 0.023099819 46353.383 23 0 3
30288.758 190.07812 4233.5161 -0.061950549 0.023099819 46398.465 23 0 3
30288.758 217.87109 4234.5967 -0.061600551 0.023099819 46421.051 23 0 3
30288.758 357.25 4240.0166 -0.059850559 0.023099819 46534.383 23 0 3
30288.758 190.08203 4249.7749 -0.061950549 0.02344982 46399.25 23 0 3
30288.758 273.54688 4253.043 -0.060900554 0.02344982 46467.082 23 0 3
30288.758 301.42188 4254.1348 -0.060550556 0.02344982 46489.75 23 0 3
30288.758 329.32812 4255.228 -0.060200557 0.02344982 46512.445 23 0 3
30288.758 441.21094 4259.6123 -0.058800563 0.02344982 46603.5 23 0 3
30288.758 23.882812 4259.4819 -0.06405054 0.02379982 46265.113 23 0 3
30288.758 217.87891 4267.1299 -0.061600551 0.02379982 46422.625 23 0 3
30288.758 385.21875 4273.7324 -0.05950056 0.02379982 46558.711 23 0 3
30288.758 441.21484 4275.9434 -0.058800563 0.02379982 46604.297 23 0 3
30288.758 79.179688 4277.8892 -0.063350543 0.02414982 46310.773 23 0 3
30288.758 273.55469 4285.6094 -0.060900554 0.02414982 46468.672 23 0 3
30288.758 301.42578 4286.7173 -0.060550556 0.02414982 46491.336 23 0 3
30288.758 329.34375 4304.1265 -0.060200557 0.024499821 46514.84 23 0 3
30288.758 51.519531 4309.2329 -0.063700542 0.024849821 46289.926 23 0 3
30288.758 79.179688 4310.3467 -0.063350543 0.024849821 46312.375 23 0 3
30288.758 134.58203 4312.5781 -0.062650546 0.024849821 46357.355 23 0 3
30288.758 217.88672 4315.9346 -0.061600551 0.024849821 46425.031 23 0 3
30288.758 357.27344 4321.5527 -0.059850559 0.024849821 46538.375 23 0 3
30288.758 23.886719 4324.3345 -0.06405054 0.025199821 46268.316 23 0 3
30288.758 79.183594 4326.5767 -0.063350543 0.025199821 46313.188 23 0 3
30288.758 217.88672 4332.2036 -0.061600551 0.025199821 46425.84 23 0 3
30288.758 301.44141 4335.5947 -0.060550556 0.025199821 46493.766 23 0 3
30288.758 51.523438 4341.6777 -0.063700542 0.025549822 46291.555 23 0 3
30288.758 79.183594 4342.8071 -0.063350543 0.025549822 46314.004 23 0 3
30288.758 134.58984 4345.0698 -0.062650546 0.025549822 46358.98 23 0 3
30288.758 162.32812 4346.2031 -0.062300548 0.025549822 46381.512 23 0 3
30288.758 217.89453 4348.4736 -0.061600551 0.025549822 46426.664 23 0 3
30288.758 245.71875 4349.6104 -0.061250553 0.025549822 46449.277 23 0 3
30288.758 329.34766 4353.0293 -0.060200557 0.025549822 46517.285 23 0 3
30288.758 162.32812 4362.4575 -0.062300548 0.025899822 46382.34 23 0 3
30288.758 301.44922 4368.1826 -0.060550556 0.025899822 46495.414 23 0 3
30288.758 413.23047 4372.7852 -0.059150562 0.025899822 46586.375 23 0 3
30288.758 441.24609 4373.939 -0.058800563 0.025899822 46609.184 23 0 3
30288.758 51.523438 4374.1235 -0.063700542 0.026249822 46293.195 23 0 3
30288.758 134.59375 4377.5635 -0.062650546 0.026249822 46360.633 23 0 3
30288.758 245.72266 4382.1675 -0.061250553 0.026249822 46450.93 23 0 3
30288.758 273.57812 4383.3218 -0.060900554 0.026249822 46473.574 23 0 3
30288.758 385.24609 4387.9517 -0.05950056 0.026249822 46564.43 23 0 3
30288.758 441.25 4390.2739 -0.058800563 0.026249822 46610.02 23 0 3
30288.758 -3.7148438 4388.0454 -0.064400539 0.026599823 46249.215 23 0 3
30288.758 23.894531 4389.1963 -0.06405054 0.026599823 46271.609 23 0 3
30288.758 79.1875 4391.501 -0.063350543 0.026599823 46316.484 23 0 3
30288.758 106.875 4392.6558 -0.063000545 0.026599823 46338.961 23 0 3
30288.758 245.72266 4398.4473 -0.061250553 0.026599823 46451.766 23 0 3
30288.758 301.45703 4400.7729 -0.060550556 0.026599823 46497.082 23 0 3
30288.758 -3.71875 4404.2544 -0.064400539 0.026949823 46250.047 23 0 3
30288.758 106.87891 4408.896 -0.063000545 0.026949823 46339.801 23 0 3
30288.758 134.59766 4410.0596 -0.062650546 0.026949823 46362.305 23 0 3
30288.758 245.72656 4414.7275 -0.061250553 0.026949823 46452.609 23 0 3
30288.758 441.26172 4422.9453 -0.058800563 0.026949823 46611.707 23 0 3
30288.758 190.10938 4428.6553 -0.061950549 0.027299823 46408.246 23 0 3
30288.758 217.90625 4429.8311 -0.061600551 0.027299823 46430.836 23 0 3
30288.758 273.58203 4432.186 -0.060900554 0.027299823 46476.102 23 0 3
30288.758 357.30078 4435.728 -0.059850559 0.027299823 46544.203 23 0 3
30288.758 413.25 4438.0957 -0.059150562 0.027299823 46589.746 23 0 3
30288.758 23.894531 4437.8486 -0.06405054 0.027649824 46274.141 23 0 3
30288.758 217.91016 4446.1045 -0.061600551 0.027649824 46431.695 23 0 3
30288.758 273.58984 4448.4751 -0.060900554 0.027649824 46476.957 23 0 3
30288.758 301.46484 4449.6626 -0.060550556 0.027649824 46499.629 23 0 3
30288.758 329.37109 4450.8511 -0.060200557 0.027649824 46522.332 23 0 3
30288.758 23.894531 4454.0674 -0.06405054 0.027999824 46274.992 23 0 3
30288.758 79.199219 4456.4355 -0.063350543 0.027999824 46319.871 23 0 3
30288.758 273.58984 4464.7651 -0.060900554 0.027999824 46477.816 23 0 3
30288.758 357.30859 4468.355 -0.059850559 0.027999824 46545.922 23 0 3
30288.758 385.26953 4469.5542 -0.05950056 0.027999824 46568.68 23 0 3
30288.758 441.27734 4471.957 -0.058800563 0.027999824 46614.285 23 0 3
30288.758 -3.7109375 4469.0962 -0.064400539 0.028349824 46253.453 23 0 3
30288.758 79.195312 4472.6704 -0.063350543 0.028349824 46320.734 23 0 3
30288.758 413.26172 4487.085 -0.059150562 0.028349824 46592.336 23 0 3
30288.758 134.60547 4491.3105 -0.062650546 0.028699825 46366.586 23 0 3
30288.758 301.47656 4498.5576 -0.060550556 0.028699825 46502.227 23 0 3
30288.758 385.28125 4502.1992 -0.05950056 0.028699825 46570.426 23 0 3
30288.758 413.26953 4503.416 -0.059150562 0.028699825 46593.211 23 0 3
30288.758 23.898438 4502.7266 -0.06405054 0.029049825 46277.59 23 0 3
30288.758 162.35156 4508.7754 -0.062300548 0.029049825 46390.004 23 0 3
30288.758 217.91797 4511.2041 -0.061600551 0.029049825 46435.164 23 0 3
30288.758 245.75 4512.4204 -0.061250553 0.029049825 46457.785 23 0 3
30288.758 23.894531 4518.9478 -0.06405054 0.029399825 46278.465 23 0 3
30288.758 51.539062 4520.1626 -0.063700542 0.029399825 46300.891 23 0 3
30288.758 79.203125 4521.3789 -0.063350543 0.029399825 46323.352 23 0 3
30288.758 106.89062 4522.5967 -0.063000545 0.029399825 46345.836 23 0 3
30288.758 106.89453 4538.8418 -0.063000545 0.029749826 46346.719 23 0 3
30288.758 162.35547 4541.2964 -0.062300548 0.029749826 46391.77 23 0 3
30288.758 329.39453 4548.6948 -0.060200557 0.029749826 46527.586 23 0 3
30288.758 357.32812 4549.9326 -0.059850559 0.029749826 46550.316 23 0 3
30288.758 385.28906 4551.1719 -0.05950056 0.029749826 46573.082 23 0 3
30288.758 -3.7109375 4550.1621 -0.064400539 0.030099826 46257.836 23 0 3
30288.758 106.89453 4555.0874 -0.063000545 0.030099826 46347.609 23 0 3
30288.758 134.61328 4556.3223 -0.062650546 0.030099826 46370.121 23 0 3
30288.758 273.60547 4562.5166 -0.060900554 0.030099826 46483.098 23 0 3
30288.758 301.49219 4563.7598 -0.060550556 0.030099826 46505.777 23 0 3
30288.758 329.39844 4565.0044 -0.060200557 0.030099826 46528.48 23 0 3
30288.758 413.28516 4568.7456 -0.059150562 0.030099826 46596.766 23 0 3
30288.758 -3.7070312 4566.377 -0.064400539 0.030449826 46258.727 23 0 3
30288.758 23.902344 4567.6143 -0.06405054 0.030449826 46281.129 23 0 3
30288.758 190.13281 4575.0664 -0.061950549 0.030449826 46416.125 23 0 3
30288.758 273.60938 4578.811 -0.060900554 0.030449826 46483.996 23 0 3
30288.758 329.40234 4581.314 -0.060200557 0.030449826 46529.379 23 0 3
30288.758 357.33594 4582.5679 -0.059850559 0.030449826 46552.117 23 0 3
30288.758 -3.7109375 4582.5933 -0.064400539 0.030799827 46259.629 23 0 3
30288.758 51.542969 4585.0845 -0.063700542 0.030799827 46304.461 23 0 3
30288.758 106.89844 4587.5815 -0.063000545 0.030799827 46349.406 23 0 3
30288.758 190.13672 4591.3374 -0.061950549 0.030799827 46417.031 23 0 3
30288.758 385.30469 4600.1499 -0.05950056 0.030799827 46575.789 23 0 3
30288.758 413.29297 4601.4141 -0.059150562 0.030799827 46598.574 23 0 3
30288.758 441.3125 4602.6802 -0.058800563 0.030799827 46621.395 23 0 3
30288.758 23.902344 4600.062 -0.06405054 0.031149827 46282.934 23 0 3
30288.758 51.542969 4601.3164 -0.063700542 0.031149827 46305.367 23 0 3
30288.758 134.61719 4605.0879 -0.062650546 0.031149827 46372.828 23 0 3
30288.758 162.36328 4606.3477 -0.062300548 0.031149827 46395.371 23 0 3
30288.758 329.41016 4613.9365 -0.060200557 0.031149827 46531.203 23 0 3
30288.758 441.31641 4619.0234 -0.058800563 0.031149827 46622.312 23 0 3
30288.758 106.90234 4620.0776 -0.063000545 0.031499825 46351.227 23 0 3
30288.758 162.36719 4622.6118 -0.062300548 0.031499825 46396.285 23 0 3
30288.758 217.9375 4625.1519 -0.061600551 0.031499825 46441.453 23 0 3
30288.758 273.62109 4627.6968 -0.060900554 0.031499825 46486.73 23 0 3
30288.758 329.41406 4630.248 -0.060200557 0.031499825 46532.121 23 0 3
30288.758 441.32031 4635.3677 -0.058800563 0.031499825 46623.234 23 0 3
30288.758 23.910156 4632.5127 -0.06405054 0.031849824 46284.77 23 0 3
30288.758 106.90625 4636.3267 -0.063000545 0.031849824 46352.148 23 0 3
30288.758 134.62109 4637.6011 -0.062650546 0.031849824 46374.66 23 0 3
30288.758 217.94141 4641.4326 -0.061600551 0.031849824 46442.375 23 0 3
30288.758 273.62891 4660.2905 -0.060900554 0.032199822 46488.582 23 0 3
30288.758 329.41797 4662.8735 -0.060200557 0.032199822 46533.973 23 0 3
30288.758 441.32812 4668.0576 -0.058800563 0.032199822 46625.094 23 0 3
30288.758 23.910156 4664.9648 -0.06405054 0.032549821 46286.617 23 0 3
30288.758 51.546875 4666.2505 -0.063700542 0.032549821 46309.051 23 0 3
30288.758 106.90234 4668.8267 -0.063000545 0.032549821 46354 23 0 3
30288.758 134.62891 4670.1167 -0.062650546 0.032549821 46376.52 23 0 3
30288.758 162.37891 4671.4087 -0.062300548 0.032549821 46399.066 23 0 3
30288.758 273.63281 4676.5884 -0.060900554 0.032549821 46489.52 23 0 3
30288.758 329.42578 4679.1875 -0.060200557 0.032549821 46534.91 23 0 3
30288.758 51.550781 4682.4858 -0.063700542 0.032899819 46309.984 23 0 3
30288.758 79.21875 4683.7812 -0.063350543 0.032899819 46332.449 23 0 3
30288.758 106.91016 4685.0776 -0.063000545 0.032899819 46354.938 23 0 3
30288.758 301.51562 4694.1938 -0.060550556 0.032899819 46513.137 23 0 3
30288.758 357.35938 4696.812 -0.059850559 0.032899819 46558.59 23 0 3
30288.758 51.554688 4698.7222 -0.063700542 0.033249818 46310.926 23 0 3
30288.758 79.214844 4700.0249 -0.063350543 0.033249818 46333.387 23 0 3
30288.758 301.51953 4710.501 -0.060550556 0.033249818 46514.082 23 0 3
30288.758 190.15625 4721.5273 -0.061950549 0.033599816 46424.465 23 0 3
30288.758 217.95312 4722.8457 -0.061600551 0.033599816 46447.066 23 0 3
30288.758 357.375 4729.459 -0.059850559 0.033599816 46560.492 23 0 3
30288.758 51.554688 4731.1953 -0.063700542 0.033949815 46312.824 23 0 3
30288.758 106.91016 4733.8345 -0.063000545 0.033949815 46357.781 23 0 3
30288.758 217.95703 4739.1304 -0.061600551 0.033949815 46448.027 23 0 3
30288.758 273.64844 4741.7871 -0.060900554 0.033949815 46493.312 23 0 3
30288.758 441.35547 4749.793 -0.058800563 0.033949815 46629.84 23 0 3
30288.758 23.910156 4746.1079 -0.06405054 0.034299813 46291.344 23 0 3
30288.758 51.554688 4747.4336 -0.063700542 0.034299813 46313.781 23 0 3
30288.758 134.63672 4751.418 -0.062650546 0.034299813 46381.258 23 0 3
30288.758 329.44531 4760.7671 -0.060200557 0.034299813 46539.672 23 0 3
30288.758 23.914062 4762.3389 -0.06405054 0.034649812 46292.305 23 0 3
30288.758 245.79297 4773.0449 -0.061250553 0.034649812 46472.582 23 0 3
30288.758 329.44922 4777.085 -0.060200557 0.034649812 46540.645 23 0 3
30288.758 413.34375 4781.1377 -0.059150562 0.034649812 46608.953 23 0 3
30288.758 51.558594 4779.9111 -0.063700542 0.03499981 46315.715 23 0 3
30288.758 79.226562 4781.2534 -0.063350543 0.03499981 46338.18 23 0 3
30288.758 162.38672 4785.29 -0.062300548 0.03499981 46405.746 23 0 3
30288.758 217.96875 4787.9883 -0.061600551 0.03499981 46450.93 23 0 3
30288.758 357.39062 4794.7607 -0.059850559 0.03499981 46564.367 23 0 3
30288.758 441.36328 4798.8423 -0.058800563 0.03499981 46632.758 23 0 3
30288.758 134.64844 4800.2065 -0.062650546 0.035349809 46384.172 23 0 3
30288.758 190.17188 4802.918 -0.061950549 0.035349809 46429.301 23 0 3
30288.758 217.96484 4804.2754 -0.061600551 0.035349809 46451.902 23 0 3
30288.758 301.54297 4808.3584 -0.060550556 0.035349809 46519.883 23 0 3
30288.758 329.45312 4809.7227 -0.060200557 0.035349809 46542.602 23 0 3
30288.758 357.39453 4811.0879 -0.059850559 0.035349809 46565.344 23 0 3
30288.758 79.226562 4813.75 -0.063350543 0.035699807 46340.141 23 0 3
30288.758 301.54297 4824.6704 -0.060550556 0.035699807 46520.871 23 0 3
30288.758 385.36328 4828.791 -0.05950056 0.035699807 46589.105 23 0 3
30288.758 51.558594 4828.6328 -0.063700542 0.036049806 46318.656 23 0 3
30288.758 79.226562 4829.999 -0.063350543 0.036049806 46341.125 23 0 3
30288.758 106.92969 4831.3662 -0.063000545 0.036049806 46363.621 23 0 3
30288.758 134.64844 4832.7358 -0.062650546 0.036049806 46386.145 23 0 3
30288.758 190.17188 4835.4785 -0.061950549 0.036049806 46431.273 23 0 3
30288.758 -3.6953125 4842.1313 -0.064400539 0.036399804 46274.793 23 0 3
30288.758 79.230469 4846.2485 -0.063350543 0.036399804 46342.117 23 0 3
30288.758 134.64844 4849.001 -0.062650546 0.036399804 46387.137 23 0 3
30288.758 245.80859 4854.5249 -0.061250553 0.036399804 46477.508 23 0 3
30288.758 273.66797 4855.9097 -0.060900554 0.036399804 46500.172 23 0 3
30288.758 413.36328 4862.8574 -0.059150562 0.036399804 46613.902 23 0 3
30288.758 441.38672 4864.2515 -0.058800563 0.036399804 46636.73 23 0 3
30288.758 -3.6914062 4858.3584 -0.064400539 0.036749803 46275.789 23 0 3
30288.758 134.65234 4865.2676 -0.062650546 0.036749803 46388.141 23 0 3
30288.758 162.39844 4866.6543 -0.062300548 0.036749803 46410.691 23 0 3
30288.758 217.98438 4869.4321 -0.061600551 0.036749803 46455.883 23 0 3
30288.758 245.8125 4870.8232 -0.061250553 0.036749803 46478.512 23 0 3
30288.758 329.46484 4875.0059 -0.060200557 0.036749803 46546.582 23 0 3
30288.758 413.36719 4879.2031 -0.059150562 0.036749803 46614.906 23 0 3
30288.758 441.39453 4880.606 -0.058800563 0.036749803 46637.738 23 0 3
30288.758 23.925781 4875.9727 -0.06405054 0.037099801 46299.207 23 0 3
30288.758 134.66016 4881.5347 -0.062650546 0.037099801 46389.145 23 0 3
30288.758 329.46875 4891.3286 -0.060200557 0.037099801 46547.594 23 0 3
30288.758 106.92969 4896.4019 -0.063000545 0.037449799 46367.629 23 0 3
30288.758 301.5625 4906.2407 -0.060550556 0.037449799 46525.891 23 0 3
30288.758 357.41797 4909.0659 -0.059850559 0.037449799 46571.363 23 0 3
30288.758 -3.6953125 4907.043 -0.064400539 0.037799798 46278.809 23 0 3
30288.758 23.925781 4908.4453 -0.06405054 0.037799798 46301.227 23 0 3
30288.758 79.238281 4911.2554 -0.063350543 0.037799798 46346.145 23 0 3
30288.758 357.41797 4925.3979 -0.059850559 0.037799798 46572.383 23 0 3
30288.758 106.9375 4928.9238 -0.063000545 0.038149796 46369.668 23 0 3
30288.758 134.66016 4930.3403 -0.062650546 0.038149796 46392.191 23 0 3
30288.758 245.82422 4936.0225 -0.061250553 0.038149796 46482.578 23 0 3
30288.758 357.42578 4941.731 -0.059850559 0.038149796 46573.41 23 0 3
30288.758 441.41406 4946.0288 -0.058800563 0.038149796 46641.824 23 0 3
30288.758 79.242188 4943.7627 -0.063350543 0.038499795 46348.195 23 0 3
30288.758 134.66406 4946.6104 -0.062650546 0.038499795 46393.223 23 0 3
30288.758 245.82812 4952.3242 -0.061250553 0.038499795 46483.613 23 0 3
30288.758 23.925781 4957.1606 -0.06405054 0.038849793 46304.305 23 0 3
30288.758 79.238281 4960.0176 -0.063350543 0.038849793 46349.227 23 0 3
30288.758 106.94141 4961.4482 -0.063000545 0.038849793 46371.727 23 0 3
30288.758 134.66016 4962.8809 -0.062650546 0.038849793 46394.254 23 0 3
30288.758 301.57812 4971.5093 -0.060550556 0.038849793 46530.012 23 0 3
30288.758 329.49219 4972.9531 -0.060200557 0.038849793 46552.73 23 0 3
30288.758 413.39844 4977.2944 -0.059150562 0.038849793 46621.066 23 0 3
30288.758 23.929688 4973.4004 -0.06405054 0.039199792 46305.344 23 0 3
30288.758 162.41406 4980.5942 -0.062300548 0.039199792 46417.852 23 0 3
30288.758 413.39844 4993.645 -0.059150562 0.039199792 46622.113 23 0 3
30288.758 106.94531 4993.9761 -0.063000545 0.03954979 46373.812 23 0 3
30288.758 218 4999.7788 -0.061600551 0.03954979 46464.102 23 0 3
30288.758 385.41016 5008.5327 -0.05950056 0.03954979 46600.363 23 0 3
30288.758 441.42578 5011.4639 -0.058800563 0.03954979 46646.004 23 0 3
30288.758 134.66797 5011.6968 -0.062650546 0.039899789 46397.395 23 0 3
30288.758 162.42188 5013.1553 -0.062300548 0.039899789 46419.957 23 0 3
30288.758 218.01172 5016.0757 -0.061600551 0.039899789 46465.156 23 0 3
30288.758 273.70312 5019.0029 -0.060900554 0.039899789 46510.465 23 0 3
30288.758 301.58984 5020.4688 -0.060550556 0.039899789 46533.16 23 0 3
30288.758 413.41016 5026.3496 -0.059150562 0.039899789 46624.227 23 0 3
30288.758 106.94531 5026.5063 -0.063000545 0.040249787 46375.918 23 0 3
30288.758 245.84375 5033.8438 -0.061250553 0.040249787 46488.855 23 0 3
30288.758 441.44141 5044.1855 -0.058800563 0.040249787 46648.133 23 0 3
30288.758 218.01172 5048.6709 -0.061600551 0.040599786 46467.277 23 0 3
30288.758 273.70703 5051.6299 -0.060900554 0.040599786 46512.59 23 0 3
30288.758 385.42188 5057.5684 -0.05950056 0.040599786 46603.555 23 0 3
30288.758 413.42188 5059.0571 -0.059150562 0.040599786 46626.363 23 0 3
30288.758 -3.6835938 5053.1372 -0.064400539 0.040949784 46288.195 23 0 3
30288.758 51.578125 5056.085 -0.063700542 0.040949784 46333.062 23 0 3
30288.758 106.94922 5059.04 -0.063000545 0.040949784 46378.051 23 0 3
30288.758 162.42969 5062.0015 -0.062300548 0.040949784 46423.145 23 0 3
30288.758 357.45703 5072.4204 -0.059850559 0.040949784 46581.848 23 0 3
30288.758 441.44922 5076.9106 -0.058800563 0.040949784 46650.277 23 0 3
30288.758 106.94922 5075.3081 -0.063000545 0.041299783 46379.125 23 0 3
30288.758 301.60156 5085.7583 -0.060550556 0.041299783 46537.441 23 0 3
30288.758 329.51953 5087.2578 -0.060200557 0.041299783 46560.168 23 0 3
30288.758 23.9375 5087.0996 -0.06405054 0.041649781 46312.766 23 0 3
30288.758 134.67578 5093.0723 -0.062650546 0.041649781 46402.734 23 0 3
30288.758 190.21094 5096.0693 -0.061950549 0.041649781 46447.891 23 0 3
30288.758 301.60547 5102.0825 -0.060550556 0.041649781 46538.523 23 0 3
30288.758 329.51953 5103.5903 -0.060200557 0.041649781 46561.254 23 0 3
30288.758 357.46484 5105.1001 -0.059850559 0.041649781 46584.012 23 0 3
30288.758 -3.6796875 5101.8481 -0.064400539 0.04199978 46291.422 23 0 3
30288.758 106.95312 5107.8462 -0.063000545 0.04199978 46381.289 23 0 3
30288.758 301.60938 5118.4077 -0.060550556 0.04199978 46539.613 23 0 3
30288.758 329.52344 5119.9233 -0.060200557 0.04199978 46562.344 23 0 3
30288.758 357.46875 5121.4409 -0.059850559 0.04199978 46585.105 23 0 3
30288.758 385.4375 5122.96 -0.05950056 0.04199978 46607.887 23 0 3
30288.758 -3.6835938 5118.0869 -0.064400539 0.042349778 46292.512 23 0 3
30288.758 106.96094 5124.1167 -0.063000545 0.042349778 46382.383 23 0 3
30288.758 190.22266 5128.6562 -0.061950549 0.042349778 46450.07 23 0 3
30288.758 218.02734 5130.1729 -0.061600551 0.042349778 46472.688 23 0 3
30288.758 301.60938 5134.7334 -0.060550556 0.042349778 46540.707 23 0 3
30288.758 329.53125 5136.2573 -0.060200557 0.042349778 46563.441 23 0 3
30288.758 385.4375 5139.3096 -0.05950056 0.042349778 46608.984 23 0 3
30288.758 413.44141 5140.8384 -0.059150562 0.042349778 46631.801 23 0 3
30288.758 134.68359 5141.9067 -0.062650546 0.042699777 46406.008 23 0 3
30288.758 162.44141 5143.4282 -0.062300548 0.042699777 46428.574 23 0 3
30288.758 273.72266 5149.5303 -0.060900554 0.042699777 46519.109 23 0 3
30288.758 23.941406 5152.0869 -0.06405054 0.043049775 46317.129 23 0 3
30288.758 134.6875 5158.186 -0.062650546 0.043049775 46407.113 23 0 3
30288.758 162.4375 5159.7158 -0.062300548 0.043049775 46429.68 23 0 3
30288.758 190.22266 5161.2461 -0.061950549 0.043049775 46452.27 23 0 3
30288.758 245.86719 5164.313 -0.061250553 0.043049775 46497.539 23 0 3
30288.758 357.47656 5170.4683 -0.059850559 0.043049775 46588.41 23 0 3
30288.758 385.45312 5172.0117 -0.05950056 0.043049775 46611.199 23 0 3
30288.758 -3.671875 5166.8076 -0.064400539 0.043399774 46295.809 23 0 3
30288.758 23.941406 5168.3359 -0.06405054 0.043399774 46318.238 23 0 3
30288.758 79.265625 5171.3975 -0.063350543 0.043399774 46363.176 23 0 3
30288.758 190.22266 5177.5425 -0.061950549 0.043399774 46453.383 23 0 3
30288.758 218.03516 5179.0835 -0.061600551 0.043399774 46476.004 23 0 3
30288.758 51.59375 5186.1235 -0.063700542 0.043749772 46341.805 23 0 3
30288.758 134.69141 5190.748 -0.062650546 0.043749772 46409.336 23 0 3
30288.758 162.44531 5192.293 -0.062300548 0.043749772 46431.906 23 0 3
30288.758 190.23047 5193.8398 -0.061950549 0.043749772 46454.5 23 0 3
30288.758 273.73047 5198.4907 -0.060900554 0.043749772 46522.445 23 0 3
30288.758 441.48828 5207.8398 -0.058800563 0.043749772 46659.094 23 0 3
30288.758 -3.6757812 5199.2915 -0.064400539 0.04409977 46298.035 23 0 3
30288.758 106.96094 5205.4785 -0.063000545 0.04409977 46387.918 23 0 3
30288.758 162.44922 5208.5825 -0.062300548 0.04409977 46433.023 23 0 3
30288.758 301.62891 5216.374 -0.060550556 0.04409977 46546.273 23 0 3
30288.758 385.46875 5221.0703 -0.05950056 0.04409977 46614.562 23 0 3
30288.758 79.269531 5220.1963 -0.063350543 0.044449769 46366.531 23 0 3
30288.758 106.96875 5221.7529 -0.063000545 0.044449769 46389.039 23 0 3
30288.758 134.69531 5223.3125 -0.062650546 0.044449769 46411.582 23 0 3
30288.758 162.44531 5224.8735 -0.062300548 0.044449769 46434.148 23 0 3
30288.758 190.23438 5226.4365 -0.061950549 0.044449769 46456.746 23 0 3
30288.758 218.04297 5228.0005 -0.061600551 0.044449769 46479.371 23 0 3
30288.758 273.74609 5231.1348 -0.060900554 0.044449769 46524.699 23 0 3
30288.758 106.97266 5238.0293 -0.063000545 0.044799767 46390.172 23 0 3
30288.758 134.69531 5239.5957 -0.062650546 0.044799767 46412.711 23 0 3
30288.758 329.55078 5250.6152 -0.060200557 0.044799767 46571.277 23 0 3
30288.758 357.50391 5252.1973 -0.059850559 0.044799767 46594.043 23 0 3
30288.758 413.47266 5255.3652 -0.059150562 0.044799767 46639.652 23 0 3
30288.758 218.05078 5260.6162 -0.061600551 0.045149766 46481.645 23 0 3
30288.758 273.75 5263.7822 -0.060900554 0.045149766 46526.977 23 0 3
30288.758 301.63672 5265.3682 -0.060550556 0.045149766 46549.684 23 0 3
30288.758 357.50391 5268.5454 -0.059850559 0.045149766 46595.184 23 0 3
30288.758 441.50781 5273.3242 -0.058800563 0.045149766 46663.645 23 0 3
30288.758 273.75391 5280.1074 -0.060900554 0.045499764 46528.125 23 0 3
30288.758 357.50781 5284.894 -0.059850559 0.045499764 46596.336 23 0 3
30288.758 51.597656 5283.6846 -0.063700542 0.045849763 46348.594 23 0 3
30288.758 79.273438 5285.272 -0.063350543 0.045849763 46371.086 23 0 3
30288.758 162.46094 5290.0439 -0.062300548 0.045849763 46438.715 23 0 3
30288.758 218.05469 5293.2354 -0.061600551 0.045849763 46483.941 23 0 3
30288.758 329.56641 5299.6387 -0.060200557 0.045849763 46574.723 23 0 3
30288.758 357.51172 5301.2432 -0.059850559 0.045849763 46597.484 23 0 3
30288.758 -3.6757812 5296.7627 -0.064400539 0.046199761 46304.855 23 0 3
30288.758 51.597656 5299.9478 -0.063700542 0.046199761 46349.75 23 0 3
30288.758 134.70703 5304.7388 -0.062650546 0.046199761 46417.301 23 0 3
30288.758 162.45703 5306.3389 -0.062300548 0.046199761 46439.871 23 0 3
30288.758 79.273438 5317.8145 -0.063350543 0.04654976 46373.398 23 0 3
30288.758 134.70703 5321.0259 -0.062650546 0.04654976 46418.457 23 0 3
30288.758 162.46875 5322.6343 -0.062300548 0.04654976 46441.035 23 0 3
30288.758 273.76172 5329.0869 -0.060900554 0.04654976 46531.598 23 0 3
30288.758 301.65234 5330.7046 -0.060550556 0.04654976 46554.309 23 0 3
30288.758 79.277344 5334.0869 -0.063350543 0.046899758 46374.562 23 0 3
30288.758 106.98438 5335.6997 -0.063000545 0.046899758 46397.078 23 0 3
30288.758 134.70703 5337.3145 -0.062650546 0.046899758 46419.625 23 0 3
30288.758 190.24609 5340.5488 -0.061950549 0.046899758 46464.797 23 0 3
30288.758 329.57812 5348.668 -0.060200557 0.046899758 46578.219 23 0 3
30288.758 357.52734 5350.2974 -0.059850559 0.046899758 46600.988 23 0 3
30288.758 413.50391 5353.562 -0.059150562 0.046899758 46646.609 23 0 3
30288.758 441.52734 5355.1963 -0.058800563 0.046899758 46669.457 23 0 3
30288.758 -3.6679688 5345.5093 -0.064400539 0.047249757 46308.34 23 0 3
30288.758 51.601562 5348.7412 -0.063700542 0.047249757 46353.238 23 0 3
30288.758 218.0625 5358.4819 -0.061600551 0.047249757 46488.602 23 0 3
30288.758 301.66406 5363.3774 -0.060550556 0.047249757 46556.656 23 0 3
30288.758 329.58203 5365.0132 -0.060200557 0.047249757 46579.398 23 0 3
30288.758 441.53516 5371.5737 -0.058800563 0.047249757 46670.641 23 0 3
30288.758 23.957031 5363.3828 -0.06405054 0.047599755 46331.953 23 0 3
30288.758 51.605469 5365.0078 -0.063700542 0.047599755 46354.414 23 0 3
30288.758 301.66797 5379.7153 -0.060550556 0.047599755 46557.84 23 0 3
30288.758 329.58203 5381.3584 -0.060200557 0.047599755 46580.582 23 0 3
30288.758 357.53125 5383.0039 -0.059850559 0.047599755 46603.352 23 0 3
30288.758 51.605469 5381.2749 -0.063700542 0.047949754 46355.594 23 0 3
30288.758 106.98828 5384.5459 -0.063000545 0.047949754 46400.609 23 0 3
30288.758 162.47266 5387.8247 -0.062300548 0.047949754 46445.734 23 0 3
30288.758 273.77734 5394.4043 -0.060900554 0.047949754 46536.312 23 0 3
30288.758 301.66797 5396.0542 -0.060550556 0.047949754 46559.027 23 0 3
30288.758 357.53906 5399.3584 -0.059850559 0.047949754 46604.539 23 0 3
30288.758 385.50781 5401.0142 -0.05950056 0.047949754 46627.336 23 0 3
30288.758 79.285156 5399.186 -0.063350543 0.048299752 46379.281 23 0 3
30288.758 162.47656 5404.1245 -0.062300548 0.048299752 46446.926 23 0 3
30288.758 385.51953 5417.3779 -0.05950056 0.048299752 46628.535 23 0 3
30288.758 413.51953 5419.043 -0.059150562 0.048299752 46651.363 23 0 3
30288.758 329.59766 5430.4014 -0.060200557 0.048649751 46584.164 23 0 3
30288.758 23.957031 5428.4248 -0.06405054 0.048999749 46336.707 23 0 3
30288.758 79.285156 5431.7397 -0.063350543 0.048999749 46381.672 23 0 3
30288.758 106.99219 5433.3999 -0.063000545 0.048999749 46404.195 23 0 3
30288.758 218.08203 5440.0601 -0.061600551 0.048999749 46494.562 23 0 3
30288.758 245.91797 5441.7295 -0.061250553 0.048999749 46517.219 23 0 3
30288.758 329.60156 5446.7505 -0.060200557 0.048999749 46585.371 23 0 3
30288.758 441.5625 5453.4712 -0.058800563 0.048999749 46676.629 23 0 3
30288.758 23.957031 5444.687 -0.06405054 0.049349748 46337.906 23 0 3
30288.758 218.08594 5456.3779 -0.061600551 0.049349748 46495.77 23 0 3
30288.758 273.78516 5459.7354 -0.060900554 0.049349748 46541.117 23 0 3
30288.758 23.960938 5460.9507 -0.06405054 0.049699746 46339.121 23 0 3
30288.758 51.609375 5462.6226 -0.063700542 0.049699746 46361.586 23 0 3
30288.758 79.292969 5464.2974 -0.063350543 0.049699746 46384.086 23 0 3
30288.758 106.99609 5465.9731 -0.063000545 0.049699746 46406.609 23 0 3
30288.758 218.08203 5472.6963 -0.061600551 0.049699746 46496.98 23 0 3
30288.758 273.78906 5476.0703 -0.060900554 0.049699746 46542.336 23 0 3
30288.758 301.68359 5477.7598 -0.060550556 0.049699746 46565.055 23 0 3
30288.758 329.60938 5479.4507 -0.060200557 0.049699746 46587.797 23 0 3
30288.758 385.53516 5499.208 -0.05950056 0.050049745 46634.602 23 0 3
30288.758 301.69531 5510.4482 -0.060550556 0.050399743 46567.508 23 0 3
30288.758 -3.6601562 5508.0522 -0.064400539 0.050749741 46320.34 23 0 3
30288.758 51.617188 5511.4419 -0.063700542 0.050749741 46365.254 23 0 3
30288.758 190.27734 5519.9512 -0.061950549 0.050749741 46478.023 23 0 3
30288.758 245.93359 5523.3682 -0.061250553 0.050749741 46523.324 23 0 3
30288.758 273.80078 5525.0801 -0.060900554 0.050749741 46546.02 23 0 3
30288.758 357.57031 5530.2266 -0.059850559 0.050749741 46614.266 23 0 3
30288.758 413.55078 5533.667 -0.059150562 0.050749741 46659.898 23 0 3
30288.758 441.58203 5535.3906 -0.058800563 0.050749741 46682.762 23 0 3
30288.758 -3.6601562 5524.311 -0.064400539 0.05109974 46321.566 23 0 3
30288.758 107.00391 5531.1304 -0.063000545 0.05109974 46411.512 23 0 3
30288.758 190.28125 5536.2651 -0.061950549 0.05109974 46479.258 23 0 3
30288.758 273.80469 5541.4185 -0.060900554 0.05109974 46547.258 23 0 3
30288.758 329.62109 5544.8633 -0.060200557 0.05109974 46592.727 23 0 3
30288.758 413.55078 5550.0454 -0.059150562 0.05109974 46661.141 23 0 3
30288.758 134.73438 5549.1392 -0.062650546 0.051449738 46435.301 23 0 3
30288.758 218.09766 5554.3042 -0.061600551 0.051449738 46503.141 23 0 3
30288.758 441.58984 5568.1641 -0.058800563 0.051449738 46685.254 23 0 3
30288.758 107.00391 5563.7139 -0.063000545 0.051799737 46413.996 23 0 3
30288.758 329.62891 5577.5742 -0.060200557 0.051799737 46595.223 23 0 3
30288.758 413.5625 5582.8047 -0.059150562 0.051799737 46663.648 23 0 3
30288.758 51.621094 5576.5464 -0.063700542 0.052149735 46370.215 23 0 3
30288.758 79.300781 5578.2759 -0.063350543 0.052149735 46392.715 23 0 3
30288.758 190.28906 5585.2139 -0.061950549 0.052149735 46483.004 23 0 3
30288.758 218.10156 5586.9536 -0.061600551 0.052149735 46505.645 23 0 3
30288.758 357.58594 5595.6807 -0.059850559 0.052149735 46619.262 23 0 3
30288.758 385.5625 5597.4326 -0.05950056 0.052149735 46642.074 23 0 3
30288.758 23.972656 5591.0894 -0.06405054 0.052499734 46349 23 0 3
30288.758 79.304688 5594.5625 -0.063350543 0.052499734 46393.98 23 0 3
30288.758 134.74219 5598.043 -0.062650546 0.052499734 46439.066 23 0 3
30288.758 162.50391 5599.7866 -0.062300548 0.052499734 46461.652 23 0 3
30288.758 218.10547 5603.2793 -0.061600551 0.052499734 46506.906 23 0 3
30288.758 245.94922 5605.0288 -0.061250553 0.052499734 46529.574 23 0 3
30288.758 441.60547 5617.3315 -0.058800563 0.052499734 46689.039 23 0 3
30288.758 -3.65625 5605.6187 -0.064400539 0.052849732 46327.809 23 0 3
30288.758 23.96875 5607.3604 -0.06405054 0.052849732 46350.258 23 0 3
30288.758 134.74219 5614.3457 -0.062650546 0.052849732 46440.328 23 0 3
30288.758 218.10547 5619.606 -0.061600551 0.052849732 46508.176 23 0 3
30288.758 273.82031 5623.123 -0.060900554 0.052849732 46553.543 23 0 3
30288.758 329.64453 5626.6479 -0.060200557 0.052849732 46599.02 23 0 3
30288.758 441.60938 5633.7222 -0.058800563 0.052849732 46690.312 23 0 3
30288.758 -3.6523438 5638.1479 -0.064400539 0.053549729 46330.348 23 0 3
30288.758 23.972656 5639.9053 -0.06405054 0.053549729 46352.797 23 0 3
30288.758 79.308594 5643.4258 -0.063350543 0.053549729 46397.781 23 0 3
30288.758 107.01172 5645.189 -0.063000545 0.053549729 46420.312 23 0 3
30288.758 441.62109 5666.5063 -0.058800563 0.053549729 46692.875 23 0 3
30288.758 51.628906 5657.9463 -0.063700542 0.053899728 46376.555 23 0 3
30288.758 245.95703 5670.373 -0.061250553 0.053899728 46534.676 23 0 3
30288.758 273.83203 5672.1567 -0.060900554 0.053899728 46557.383 23 0 3
30288.758 301.73047 5673.9419 -0.060550556 0.053899728 46580.105 23 0 3
30288.758 357.60547 5677.5186 -0.059850559 0.053899728 46625.645 23 0 3
30288.758 413.58984 5681.104 -0.059150562 0.053899728 46671.297 23 0 3
30288.758 51.625 5674.229 -0.063700542 0.054249726 46377.836 23 0 3
30288.758 329.65625 5692.0913 -0.060200557 0.054249726 46604.152 23 0 3
30288.758 357.60547 5693.8896 -0.059850559 0.054249726 46626.941 23 0 3
30288.758 51.632812 5690.5122 -0.063700542 0.054599725 46379.125 23 0 3
30288.758 107.01953 5694.0845 -0.063000545 0.054599725 46424.168 23 0 3
30288.758 218.12109 5701.2534 -0.061600551 0.054599725 46514.59 23 0 3
30288.758 245.96094 5703.0498 -0.061250553 0.054599725 46537.258 23 0 3
30288.758 329.66016 5708.4551 -0.060200557 0.054599725 46605.453 23 0 3
30288.758 441.63672 5715.6895 -0.058800563 0.054599725 46696.762 23 0 3
30288.758 51.632812 5706.7969 -0.063700542 0.054949723 46380.422 23 0 3
30288.758 79.316406 5708.5898 -0.063350543 0.054949723 46402.934 23 0 3
30288.758 245.96875 5719.3906 -0.061250553 0.054949723 46538.566 23 0 3
30288.758 329.66406 5724.8188 -0.060200557 0.054949723 46606.758 23 0 3
30288.758 413.60547 5730.2661 -0.059150562 0.054949723 46675.199 23 0 3
30288.758 79.316406 5724.8833 -0.063350543 0.055299722 46404.234 23 0 3
30288.758 329.66406 5741.1841 -0.060200557 0.055299722 46608.066 23 0 3
30288.758 441.64453 5748.4834 -0.058800563 0.055299722 46699.387 23 0 3
30288.758 23.980469 5737.5625 -0.06405054 0.05564972 46360.551 23 0 3
30288.758 245.97656 5752.0737 -0.061250553 0.05564972 46541.188 23 0 3
30288.758 357.625 5759.3794 -0.059850559 0.05564972 46632.172 23 0 3
30288.758 385.60547 5761.2114 -0.05950056 0.05564972 46654.988 23 0 3
30288.758 23.980469 5753.8418 -0.06405054 0.055999719 46361.863 23 0 3
30288.758 51.636719 5755.6562 -0.063700542 0.055999719 46384.348 23 0 3
30288.758 134.76172 5761.1123 -0.062650546 0.055999719 46451.965 23 0 3
30288.758 385.60938 5777.5947 -0.05950056 0.055999719 46656.312 23 0 3
30288.758 441.65234 5781.2803 -0.058800563 0.055999719 46702.031 23 0 3
30288.758 -3.6484375 5768.3013 -0.064400539 0.056349717 46340.723 23 0 3
30288.758 79.320312 5773.769 -0.063350543 0.056349717 46408.18 23 0 3
30288.758 107.02734 5775.5952 -0.063000545 0.056349717 46430.715 23 0 3
30288.758 190.31641 5781.0879 -0.061950549 0.056349717 46498.5 23 0 3
30288.758 245.98047 5784.7603 -0.061250553 0.056349717 46543.828 23 0 3
30288.758 301.75 5788.4414 -0.060550556 0.056349717 46589.27 23 0 3
30288.758 385.61328 5793.9785 -0.05950056 0.056349717 46657.641 23 0 3
30288.758 -3.6445312 5784.5742 -0.064400539 0.056699716 46342.047 23 0 3
30288.758 51.636719 5788.2334 -0.063700542 0.056699716 46386.988 23 0 3
30288.758 245.98828 5801.1055 -0.061250553 0.056699716 46545.16 23 0 3
30288.758 301.75391 5804.8018 -0.060550556 0.056699716 46590.602 23 0 3
30288.758 357.63672 5808.5068 -0.059850559 0.056699716 46636.156 23 0 3
30288.758 441.66406 5814.0811 -0.058800563 0.056699716 46704.695 23 0 3
30288.758 134.77344 5810.0508 -0.062650546 0.057049714 46455.945 23 0 3
30288.758 245.98828 5817.4507 -0.061250553 0.057049714 46546.5 23 0 3
30288.758 413.63281 5828.6143 -0.059150562 0.057049714 46683.16 23 0 3
30288.758 441.66797 5830.4829 -0.058800563 0.057049714 46706.039 23 0 3
30288.758 23.984375 5818.9678 -0.06405054 0.057399713 46367.168 23 0 3
