VERSION .7
FIELDS x y z
SIZE 4 4 4
TYPE F F F
COUNT 1 1 1
WIDTH 127
HEIGHT 1
VIEWPOINT 0 0 0 1 0 0 0
POINTS 127
DATA ascii
-14.3552409524 4.27658545806 -0.251989841106
-14.3552409524 4.27609375303 -0.140898890637
-14.3552409524 4.27549076551 -0.0293611330233
-14.9422041288 4.30396493668 0.0
-14.3552409524 4.16565002353 -0.251989841106
-14.3552409524 4.16495790628 -0.140898890637
-14.3552409524 4.16410914931 -0.0293611330233
-14.9422041288 4.20418900183 0.0
-15.566217203 4.24695852233 0.0
-16.0525990129 4.28018744375 0.0
-16.4426414888 4.30673779085 0.0
-14.5711857075 4.07378283769 -0.269302370676
-14.5807316008 4.07378283769 -0.163523420902
-14.5923910229 4.07378283769 -0.0579565313506
-14.9422041288 4.10413600975 0.0
-15.566217203 4.15932443178 0.0
-16.0525990129 4.20220196974 0.0
-16.4426414888 4.2364616889 0.0
-16.7626215955 4.26445369956 0.0
-17.0300575706 4.28774472135 0.0
-17.2570776684 4.30741938712 0.0
-15.5541962769 4.07378283769 -0.261195679969
-15.5637076977 4.07378283769 -0.175077252213
-15.57493947 4.07378283769 -0.0891662633019
-15.5878871012 4.07378283769 -0.00349707648625
-16.0525990129 4.12393695435 0.0
-16.4426414888 4.16593368006 0.0
-16.7626215955 4.2002472361 0.0
-17.0300575706 4.22879816056 0.0
-17.2570776684 4.25291603314 0.0
-17.4523451572 4.27355053148 0.0
-17.6222133173 4.2913980648 0.0
-17.7714473156 4.30698091998 0.0
-16.2352936387 4.07378283769 -0.256056639861
-16.2447716185 4.07378283769 -0.183560279003
-16.2556975333 4.07378283769 -0.111267963892
-16.2680670129 4.07378283769 -0.0392086104911
-16.4426414888 4.09509564282 0.0
-16.7626215955 4.13575853262 0.0
-17.0300575706 4.16959248132 0.0
-17.2570776684 4.19817309227 0.0
-17.4523451572 4.22262577013 0.0
-17.6222133173 4.24377578675 0.0
-17.7714473156 4.26224207226 0.0
-17.9036913005 4.27849790346 0.0
-18.0217797997 4.29291136261 0.0
-18.127950781 4.30577301986 0.0
-16.7358747904 4.07378283769 -0.252767468632
-16.7453184363 4.07378283769 -0.190282721192
-16.7560098052 4.07378283769 -0.127999330612
-16.7679446207 4.07378283769 -0.065942209419
-16.781118109 4.07378283769 -0.00413617963269
-17.0300575706 4.11007826144 0.0
-17.2570776684 4.14314486757 0.0
-17.4523451572 4.17143562276 0.0
-17.6222133173 4.19590533303 1.11022302463e-16
-17.7714473156 4.21727007541 0.0
-17.9036913005 4.23607741191 0.0
-18.0217797997 4.25275319877 0.0
-18.127950781 4.26763361386 0.0
-18.2239947958 4.28098757572 0.0
-17.1199378764 4.07378283769 -0.250738604403
-17.1293452868 4.07378283769 -0.195935012367
-17.1398468146 4.07378283769 -0.141330516351
-17.1514382593 4.07378283769 -0.0869469574242
-17.1641149844 4.07378283769 -0.0328060882854
-17.2570776684 4.08778472526 0.0
-17.4523451572 4.11993670819 0.0
-17.6222133173 4.14774613573 0.0
-17.7714473156 4.1720268178 0.0
-17.9036913005 4.19340104969 0.0
-18.0217797997 4.21235281012 0.0
-18.127950781 4.22926415973 0.0
-18.2239947958 4.24444072009 0.0
-17.4160266581 4.07378283769 -0.298521252323
-17.4244192635 4.07378283769 -0.249629484933
-17.4337879606 4.07378283769 -0.20091533649
-17.444129002 4.07378283769 -0.152398292002
-17.4554382516 4.07378283769 -0.104097757641
-17.4677111856 4.07378283769 -0.0560330529768
-17.4809428951 4.07378283769 -0.00822340325004
-17.6222133173 4.09925667078 0.0
-17.7714473156 4.12647328955 0.0
-17.9036913005 4.15043202018 0.0
-18.0217797997 4.1716753624 0.0
-18.127950781 4.19063157434 0.0
-18.2239947958 4.20764323228 0.0
-17.663679014 4.07378283769 -0.293167469049
-17.6721291591 4.07378283769 -0.249229489302
-17.6814563153 4.07378283769 -0.205469288494
-17.6916567517 4.07378283769 -0.161904370122
-17.7027263885 4.07378283769 -0.118552159572
-17.7146607977 4.07378283769 -0.0754299971503
-17.727455206 4.07378283769 -0.0325551311475
-17.7714473156 4.08056944348 0.0
-17.9036913005 4.10713254828 0.0
-18.0217797997 4.13068509513 0.0
-18.127950781 4.15170189489 0.0
-18.2239947958 4.17056276275 0.0
-17.8694268964 4.07378283769 -0.289223720635
-17.877914763 4.07378283769 -0.249401212935
-17.8871973292 4.07378283769 -0.209756415487
-17.897270882 4.07378283769 -0.170305185681
-17.9081313922 4.07378283769 -0.131063303483
-17.9197745156 4.07378283769 -0.0920464651229
-17.9321955953 4.07378283769 -0.0532702768155
-17.9453896629 4.07378283769 -0.0147502485194
-18.0217797997 4.08934519073 0.0
-18.127950781 4.11244015463 0.0
-18.2239947958 4.13316600573 0.0
-18.0433459963 4.07378283769 -0.286394849624
-18.0518556539 4.07378283769 -0.25005105779
-18.0610904371 4.07378283769 -0.213884716279
-18.0710466519 4.07378283769 -0.177910291144
-18.0817203161 4.07378283769 -0.142142171677
-18.0931071603 4.07378283769 -0.106594664649
-18.10520263 4.07378283769 -0.0712819885867
-18.1180018871 4.07378283769 -0.0362182680914
-18.1314998122 4.07378283769 -0.00141752818352
-18.2239947958 4.09541857385 0.0
-18.1925165471 4.07378283769 -0.284473127762
-18.2010348035 4.07378283769 -0.251112932385
-18.2102185157 4.07378283769 -0.217929762595
-18.2200640104 4.07378283769 -0.184936891217
-18.2305673494 4.07378283769 -0.15214751496
-18.2417243317 4.07378283769 -0.119574749137
-18.2535304946 4.07378283769 -0.0872316224211
