VERSION .7
FIELDS x y z
SIZE 4 4 4
TYPE F F F
COUNT 1 1 1
WIDTH 59
HEIGHT 1
VIEWPOINT 0 0 0 1 0 0 0
POINTS 59
DATA ascii
-18.2552409524 4.21964865913 -0.138113062903
-18.2239950105 4.31378283769 -0.0381148269962
-18.1404361158 4.26978471087 0.0
-18.0199376862 4.13434961706 -4.4408920985e-16
-18.1630863014 4.31378283769 -0.249951473734
-18.0928753551 4.31378283769 -0.190909122207
-18.0238592187 4.31378283769 -0.130474453442
-17.956065498 4.31378283769 -0.0686716405023
-17.8895213094 4.31378283769 -0.00552540368766
-17.7648639687 4.18032496782 0.0
-17.8863027359 4.31378283769 -0.284429545596
-17.8154576289 4.31378283769 -0.219844996411
-17.7459182954 4.31378283769 -0.153856556025
-17.6777125501 4.31378283769 -0.0864906189341
-17.6108676744 4.31378283769 -0.0177741306148
-17.4883529732 4.1956801404 -4.4408920985e-16
-17.5272799607 4.31378283769 -0.235782598048
-17.45747953 4.31378283769 -0.164027801112
-17.3891280592 4.31378283769 -0.0908914391099
-17.322252888 4.31378283769 -0.0164027656096
-17.186576152 4.17924248252 4.4408920985e-16
-17.2285090572 4.31378283769 -0.238020740133
-17.1587236189 4.31378283769 -0.160290475867
-17.0905066388 4.31378283769 -0.0811801414152
-17.0238854028 4.31378283769 -0.00072137985476
-16.8547928312 4.12898513048 -4.4408920985e-16
-16.9193120017 4.31378283769 -0.225842109389
-16.8498319571 4.31378283769 -0.141930751913
-16.7820439232 4.31378283769 -0.0566466678941
-16.6758476579 4.24650997454 -4.4408920985e-16
-16.6705158269 4.31378283769 -0.287409734129
-16.5998542694 4.31378283769 -0.198510471763
-16.5309847105 4.31378283769 -0.108215851722
-16.4639346971 4.31378283769 -0.0165619906489
-16.2874171927 4.13981369626 0.0
-16.340160194 4.31378283769 -0.250766020429
-16.2702975309 4.31378283769 -0.155267414369
-16.2023586846 4.31378283769 -0.0583907472804
-16.0757952639 4.22413533789 0.0
-16.0702930599 4.31378283769 -0.298533841127
-15.9995290757 4.31378283769 -0.197628698956
-15.9307972121 4.31378283769 -0.0953285518064
-15.8508921686 4.29522143004 0.0
-15.7181778736 4.31378283769 -0.235114523943
-15.6487526118 4.31378283769 -0.127180230964
-15.5814997766 4.31378283769 -0.0178791114532
-15.3550601878 4.10155596464 0.0
-15.4256884655 4.31378283769 -0.267525594826
-15.3556735215 4.31378283769 -0.153735421665
-15.2879482318 4.31378283769 -0.0385678002523
-15.0804260002 4.13627679792 0.0
-15.1214447169 4.31378283769 -0.294646677238
-15.0509482341 4.31378283769 -0.174766610718
-14.9828632916 4.31378283769 -0.0535006837512
-14.7849979736 4.15681738454 0.0
-14.7338970367 4.31378283769 -0.190026873584
-14.6655703174 4.31378283769 -0.062417293444
-14.4660564307 4.16277417637 4.4408920985e-16
-14.4037633563 4.31378283769 -0.199247257657
