VERSION .7
FIELDS x y z
SIZE 4 4 4
TYPE F F F
COUNT 1 1 1
WIDTH 260
HEIGHT 1
VIEWPOINT 0 0 0 1 0 0 0
POINTS 260
DATA ascii
2523.2270346482037 1.5853579498070758e-05 -103.87365442132705 
2500.7166447320797 1.4795992683502845e-05 30.90054442019209 
2544.999985689795 155.23434923135392 -59.40241993718428 
2478.7787477366774 1.376530508423457e-05 162.24711384168495 
2544.999987102541 99.7485353111042 129.91607939097867 
2457.3813523554345 1.2760009667545091e-05 290.3575921829088 
2544.9999884478966 46.90953573361094 310.20360514288495 
2543.4782145531763 1.1271908078924753e-05 478.8679484639397 
2522.2432342712627 1.0329898941563442e-05 598.9886730615067 
2544.999989636744 194.3274901870509 482.8654880862423 
2501.4783162670306 9.408742698724382e-06 716.450378406344 
2544.999990889626 140.9884374233261 650.47689396139 
2481.1581062843898 8.457015610474627e-06 831.3964870595714 
2544.999992087961 89.97169702461542 810.7907191669697 
2461.25875452727 7.574256414955016e-06 943.9619107309577 
2544.999993235787 41.10523574356648 964.3475570010023 
2542.4855522501193 6.290595592872705e-06 1107.0041085021803 
2522.625867855454 5.455645805341192e-06 1213.5390598848498 
2544.9999943401335 180.6207690579149 1124.9142455056754 
2503.133212098154 4.636125595425256e-06 1318.1051291211293 
2544.999995420597 130.90059661545092 1269.2033302437244 
2483.9881430617206 3.831219146377407e-06 1420.8066100954306 
2465.1722433612517 3.040152478206437e-06 1521.7423007124098 
2544.9999974590805 37.09476798986543 1541.4300038567885 
2446.668043174106 2.2118911147117615e-06 1621.0059159479729 
2541.8409263853273 1.863786565081682e-06 1665.2030773106362 
2522.967060666724 1.1092915883637033e-06 1761.5311411083076 
2544.999998517382 168.4473406284169 1695.1406711443196 
2504.3794403839647 3.662407834781334e-07 1856.3982710932255 
2544.999999466777 121.3382532916994 1821.6911517587719 
2449.4059099458736 81.65720157264786 1899.999999384429 
2513.792434072603 148.76204754452192 1899.9999993231918 
2770.0568911084965 49.99999984180067 1424.6993304809935 
2845.000000236469 99.57613907946507 1435.7399361869852 
2559.1460097503273 50.00000147794617 1431.780580795722 
2654.833473114723 50.00000105968047 1478.4495319362618 
2748.6829134270965 49.99999906280118 1524.2758246406474 
2840.790308994142 49.999998659342054 1569.304785628391 
2343.5300306116133 49.99999973917056 1439.3216717784408 
2634.453495990834 50.00000028277918 1577.6982756796247 
2714.9226127555157 82.73303579800086 1599.999998788895 
2782.771713724952 148.7032233440941 1599.999999555096 
2122.6048201578956 49.99999978537471 1447.5072064281235 
2225.1714618210444 49.999999358664354 1494.8045244000982 
2325.522149927394 49.99999894032135 1541.1875387365258 
1786.6195366371066 50.000000268252734 1407.9313714967857 
1895.7284634228859 49.999999827901775 1456.5337917782458 
2002.2693362076502 49.99999939683403 1504.1284592580819 
2106.378348515375 49.99999897453745 1550.7714283874661 
2208.1834031714898 50.00000014675061 1596.515417466976 
2278.0466724072658 111.47211884467106 1599.9999982912204 
1548.4816400252257 50.000000310654286 1417.6878269489025 
1662.2149912688988 49.99999986542116 1466.612487767848 
1773.1279954378028 49.99999942992781 1514.4879366923515 
1881.3718325120294 50.00000058984915 1561.373345168363 
1981.1058292086568 60.74984624468016 1599.9999965214242 
2048.788526392477 128.06315589927362 1599.9999964826447 
1302.5083010373519 50.00000034667937 1428.745269737436 
1421.3274011728013 49.999999896495865 1477.971551387031 
1537.0472096265153 50.00000104275023 1526.106116757529 
1649.8360876240777 50.00000061242099 1573.2114789853108 
1742.5238629324322 78.5080671535543 1599.9999946353882 
1810.871223756701 146.5949407106882 1599.999994595336 
1047.8576596868138 50.00000037473001 1441.3585623775216 
1172.2698220213183 49.999999919553375 1490.8595294990969 
1293.2731967827494 50.00000106131574 1539.2253973797679 
1411.055880218827 50.000000626957444 1586.522245061928 
1493.7061126871458 98.56830344296395 1599.9999926562227 
649.0679777231876 50.00000086516775 1404.8124434598985 
783.6133798007186 50.00000039304541 1455.807690045272 
914.1786529517308 50.0000015190908 1505.5487739274872 
1040.9905506015457 50.00000107015512 1554.110728984384 
1162.5598253217263 52.29029230555261 1599.9999906009698 
1233.1378527964894 121.37016663684062 1599.999990569359 
367.0405325046595 50.000000877359525 1421.1615786362108 
508.7734862485863 50.00000198589623 1472.402043637774 
646.1124828636448 50.000001520756086 1522.3394728804442 
779.3131062962962 50.00000106740299 1571.053407948731 
886.6695390811578 77.42801748767761 1599.9999883835017 
959.0603348123786 147.41463217757246 1599.9999883579599 
72.57542933901095 50.00000246185209 1440.0543884060498 
222.2375283599049 50.00000197866848 1491.485382552341 
367.040532058641 50.00000150865344 1541.5642867370789 
507.2735220484042 50.00000105099116 1590.3754270073614 
594.7538485648579 106.34100374659192 1599.999986018869 
75.82935158030068 50.00000148041272 1563.5937372555823 
206.35940782592934 68.28115235347286 1599.9999834796745 
284.31228309028575 139.69773007713138 1599.9999834834766 
2343.6508642011772 50.00000980243658 40.78440245946513 
2091.02178238566 50.00001001186138 30.400744154470885 
2208.4513460177777 50.00000938033554 102.57987263379891 
2322.922867608894 50.00000979527704 172.69603551177806 
1830.4060113488495 50.00001023922414 18.26171730133956 
1953.2083093806455 50.000009590975424 92.20864675913981 
2072.730871769175 50.000008961706044 163.97045525671365 
2189.166453318248 50.0000093789522 233.6713935326561 
2302.69465070497 50.00000878447099 301.4271069503111 
2413.483060543 50.00000820594141 367.34538464803427 
1560.7573791080672 50.00001048433205 4.458274792383236 
1689.532869454426 50.00000981823541 80.27669163579594 
1814.6692051789191 50.00000917235684 153.7767729173056 
1936.3832507728403 50.0000085455149 225.09342456008835 
2054.8765551652464 50.00000896523579 294.35192548334817 
2170.336737231549 50.00000837326297 361.6687977611782 
2282.938720581079 50.000007797267244 427.1525756949022 
2392.845846578164 50.00000723636185 490.904505071775 
1416.3473456993383 50.000010061884495 66.88151412216303 
1547.721722971889 50.00000939828169 142.22070419754073 
1675.298542015615 50.000008754964256 215.2428893712431 
1799.3048938548063 50.00000813074075 286.0841471777094 
1919.9516383790346 50.00000752450342 354.8707532910039 
2037.4348812070025 50.00000796383938 421.7200702733853 
2151.93729698337 50.000007390554856 486.7413469266003 
2263.62930964777 50.00000683237522 550.0364250276416 
2372.6701576333244 50.000006288465556 611.7003830529343 
1132.4684656038062 50.00001032174805 52.11990853375846 
1270.7769646749193 50.00000963920138 129.4079084062805 
1404.8660448165188 50.00000897831069 204.23305018817246 
1534.9926102628415 50.00000833776994 276.74354467840203 
1661.394585173041 50.00000771637133 347.07659887292175 
1784.292685504346 50.00000711299708 415.359441514016 
1903.891997390092 50.0000075552216 481.71023595189945 
2020.3833897605195 50.00000698484473 546.2389000967773 
2133.944772962141 50.000006429580026 609.047830977272 
2244.742233386712 50.00000588858802 670.2325636677924 
2352.9310504335836 50.000005361081094 729.8823589584799 
836.5886626912643 50.00001059771239 36.08954292066392 
982.6113296996327 50.00000989488217 115.44567441859908 
1123.9382225977197 50.00000921521314 192.1793642892735 
1260.8611728200276 50.00000855727376 266.4524987090863 
1393.64972773908 50.00000791974435 338.4145680591164 
1522.5532870121856 50.00000730140073 408.2038542527307 
1647.802999607844 50.00000670111149 475.94848500987246 
1769.6134516815569 50.00000714644375 541.767371247232 
1888.1841754173242 50.00000657918372 605.7710479374036 
2003.7009919700427 50.00000602704131 668.0624167104534 
2116.3372207153043 50.00000548916614 728.7374201371008 
2226.254761988654 50.00000496476787 787.8856426596203 
2333.6050717384624 50.00000445310616 845.5908520218309 
527.2540553176264 50.00001088971112 18.89069851829663 
681.8693704639127 50.000010165126696 100.44476860288341 
831.2485946881911 50.00000946536329 179.20140873855962 
975.7246435347724 50.00000878884566 255.33796773412178 
1115.6041552535894 50.00000813412589 329.01777975010737 
1251.170081008012 50.000007499865205 400.39154527239407 
1382.6839763335815 50.00000688482669 469.5985527865769 
1510.3880333714537 50.0000062878662 536.7677622271103 
1634.5068868852254 50.000006736540854 602.018767215845 
1755.2492267774683 50.00000617262958 665.4626570465416 
1872.809231800457 50.000005623830475 727.2027774697813 
1987.3678590191462 50.000005089290426 787.3354204109623 
2099.093997190609 50.0000045682109 845.950438194885 
2208.1455039155926 50.000004059848834 903.1317963752099 
2314.670139560015 50.000003563503924 958.9580715136913 
2418.806409832918 50.00000307852315 1013.5029002467136 
525.3909549511595 50.000009728469195 165.42503164603295 
678.2710631353498 50.00000903208365 243.53368954426696 
826.0311705097588 50.000008359020285 319.0264649942237 
968.9936281507844 50.000007707811164 392.0680518219888 
1107.455598018791 50.000007077102055 462.8102743700374 
1241.691512274262 50.00000646564331 531.3933439974148 
1371.955251622197 50.00000587227805 597.9469720273878 
1498.4820788281418 50.000006324554306 662.5913570389325 
1621.4903629674832 50.00000576423827 725.4380680898753 
1741.1831108602682 50.00000521902439 786.5908237302192 
1857.749342773233 50.000004688053195 846.1461971474496 
1971.3653216715893 50.0000041705207 904.1942436392324 
2082.195657425905 50.00000366567565 960.8190647686802 
2190.3943000962677 50.00000317281956 1016.0993158475881 
2296.1054351685193 50.00000269129396 1070.1086633255773 
2399.4642919422686 50.00000222048402 1122.9161978072166 
523.5706879674904 50.000008593925486 308.59048497706135 
674.7540793981138 50.000007924647434 383.38872747690493 
820.9297243571837 50.000007277270925 455.74335265263926 
962.4098518358028 50.00000665042353 525.8072037639986 
1099.482534175399 50.00000604284378 593.7213142797741 
1232.4140233496869 50.000005453362974 659.616050495632 
1361.4508228303134 50.00000488089972 723.6121248516733 
1486.821528690305 50.000005353068445 785.8214958526446 
1608.7384734471057 50.00000481170082 846.3481743036223 
1727.3991873192049 50.00000428455132 905.288934713039 
1842.9877125680218 50.00000377080869 962.7339604072617 
1955.6757789371827 50.000003269719855 1018.7674179497667 
2065.6238605670956 50.00000278058178 1073.4679741608043 
2172.9821276202674 50.000002302733265 1126.9092616551725 
2277.8913047398473 50.00000183555585 1179.1602988266018 
2380.4834468992403 50.00000137847201 1230.2858694421225 
521.790925795261 50.00000748462662 448.5702025100554 
671.3140146289584 50.00000684143288 520.1850349738997 
815.9379955874092 50.00000621878735 589.5198546537426 
955.9653900902258 50.00000561541128 656.7163974154982 
1091.6755435503665 50.000005030127795 721.9055708420256 
1223.3268458747575 50.0000044618464 785.2084925602821 
1351.1587022650551 50.00000493817515 846.7374113028454 
1475.3932907131943 50.00000440093754 906.5965309640405 
1596.2371226649625 50.00000387787986 964.8827372379001 
1713.8824450791926 50.00000336818994 1021.6862555304101 
1828.5084930428438 50.00000287111288 1077.0912363124812 
1940.2826148932559 50.00000238593657 1131.1762814233903 
2049.3612842281004 50.00000191200252 1184.0149175069082 
2155.8910119313036 50.000001448689545 1235.6760227181944 
2260.0091696345194 50.000000995416485 1286.2242120407373 
2361.8447345715795 50.00000055163582 1335.7201858691205 
520.049481491606 50.00000639921018 585.5361890496047 
667.946729134926 50.00000578113486 654.0872294913156 
811.0500960789882 50.000005182319 720.5137704948829 
949.6527850264747 50.00000460157571 784.9471281360766 
1084.025755044605 50.00000403780541 847.5087000843278 
1214.4198322374282 50.000004518607966 908.3109074769195 
1341.0675896376051 50.00000398580323 967.4580364429298 
1464.1850148106232 50.000003467132956 1025.0469796143575 
1583.9730061460505 50.00000296177859 1081.1679064710397 
1700.6187082947467 50.00000246898253 1135.9048592680806 
1814.2967104073487 50.000001988033546 1189.3362882730794 
1925.170122807277 50.00000151826862 1241.535532763216 
2033.3915463230164 50.000001059063834 1292.5712541318899 
2139.10394663742 50.000000609838935 1342.5078266213363 
2242.4414444163313 50.000000170047315 1391.4056904856466 
518.3442983297023 50.0000053363965 719.6502078043163 
664.6483269482528 50.00000474252738 785.2502366017047 
806.2604806033046 50.000004166692634 848.8737102710693 
943.4650084766722 50.00000360778722 910.64216219945 
1076.5248026788745 50.00000409340737 970.6680506688713 
1205.683409969945 50.00000356536384 1029.0556173175964 
1331.1668144185287 50.00000305139474 1085.9016430049078 
1453.1850349309257 50.00000255068153 1141.296130083223 
1571.9335495730402 50.000002062459316 1195.3229084158315 
1687.594572187586 50.0000015860187 1248.0601790866817 
1800.3381983103836 50.000001120692104 1299.581002521892 
1910.3234358059499 50.00000066585926 1349.9537375848736 
2017.6991336016613 50.00000022093718 1399.2424373386802 
516.6734394378914 50.00000429497686 851.0645952783739 
661.4151365577159 50.000003724452654 913.820056224301 
801.5639198781869 50.000003170797754 974.7398168284649 
937.3954275963347 50.00000366160293 1033.9362180864841 
1069.164789402345 50.00000313867349 1091.5133130053168 
1197.108532930607 50.00000262974572 1147.5676361205392 
1321.4462900579829 50.00000213399744 1202.1888970290552 
1442.382316617981 50.00000165066467 1255.4605958703055 
1560.1068530368875 50.00000117903346 1307.4605749207662 
1674.7973443950373 50.00000071843806 1358.2615132907745 
515.0350783773088 50.00000327381167 979.9230023486302 
658.2436933697654 50.000002725822014 1039.9344600687054 
796.9554760196979 50.00000219358844 1098.244423647286 
931.4377775115122 50.00000270477358 1154.9565917735995 
1061.9382465117133 50.000002201252755 1210.167103235397 
1188.6866438414354 50.00000171082047 1263.9652326707037 
1311.8964688093306 50.00000123271184 1316.4340188184265 
1431.7664090602707 50.00000076621291 1367.6508224467739 
513.4274905585398 50.000002271826816 1106.3610693511414 
655.130723717456 50.000001745602276 1163.7236275298624 
792.4304792916319 50.00000226269185 1219.5126543789675 
925.5861284652437 50.000001764969966 1273.8237196147034 
1054.838103986804 50.00000128022839 1326.745505177275 
1180.4096365292357 50.000000807704055 1378.3604411052352 
511.84904540960133 50.0000012880073 1230.5070420755933 
652.0731293740068 50.00000181143878 1285.3107256472163 
787.9845110296437 50.00000131993602 1338.662974744539 
919.8348635018874 50.000000841288056 1390.6517013070352 
510.29819830233964 50.00000135000573 1352.4823340025014 
