VERSION .7
FIELDS x y z
SIZE 4 4 4
TYPE F F F
COUNT 1 1 1
WIDTH 51
HEIGHT 1
VIEWPOINT 0 0 0 1 0 0 0
POINTS 51
DATA ascii
2544.9999865526493 33.29101508374879 50.1715916519006 
2510.420338277517 1.211261042044498e-05 368.6217657506486 
2463.972615552748 9.999924259318504e-06 637.9474234427698 
2544.999994582071 127.50725264705216 1154.3368329982204 
2544.999996895187 22.86471865765361 1463.3627003004863 
2512.4963263575837 1.6138355931616388e-06 1698.579472850574 
2464.327819298681 15.946157888437483 1900.000000014742 
2743.9822113127098 50.00000047769936 1546.175321268844 
2045.9259888546799 49.99999970878889 1462.0264540379885 
2273.4213452531685 49.99999877198661 1565.7162585381961 
1528.0922459984376 49.999999788661626 1484.7969241370088 
1776.3452461073998 50.00000041795829 1589.7073200310247 
679.6888400342691 50.00000086305408 1403.137085092687 
971.6743009775178 50.000001417553904 1514.704715303094 
1223.6082193413354 80.28512430636329 1599.9999908255008 
39.03407469730337 50.000002460695214 1442.3274363285345 
367.04053217061846 50.00000140350585 1554.8218954153094 
594.5720189866388 141.32005776036112 1599.9999857401162 
1978.1728582391584 50.000010229800864 10.078480830956323 
2240.3406898501794 50.00000985853694 169.95720663451357 
1667.5308227273986 50.000009296002645 147.51818481860028 
1940.4647012620248 50.00000790808099 305.2060510319725 
2197.7344978030283 50.000007634209396 453.11558000445984 
1047.6850050275443 50.00000983679911 118.64212629812937 
1352.2072280733737 50.000008364886526 284.91672197579646 
1637.0267169243384 50.000006991117516 440.0662968990928 
1904.652594677258 50.00000673172144 585.4939419671773 
2157.2172219905765 50.00000551893663 722.391132716109 
2396.546779917571 50.00000437238123 851.7773025614597 
711.5373451739433 50.00000888055183 260.5299140639945 
1031.0710848062186 50.000007425041986 423.78432205938225 
1328.960472169325 50.000006068124094 575.9803175058692 
1607.9900934646785 50.00000582573284 718.5405851887112 
1870.515924397947 50.000004629900104 852.6688283026633 
2118.5469689158017 50.000003500093044 979.3914754442112 
2353.8091148636963 50.00000242844726 1099.5903076697168 
703.0329445097486 50.00000646499757 565.6365247276963 
1015.2489008646207 50.00000512821771 714.3849681056108 
1306.78552137097 50.00000490587445 853.6242478567151 
1580.251562610796 50.000003729814125 984.5655880385161 
1837.8620767910215 50.00000261937748 1108.238218972972 
2081.5120506691173 50.000001566622814 1225.523474216002 
2312.834280996478 50.000000564697075 1337.181591649477 
694.9190260370515 50.000004160354365 856.7340708286288 
1000.12719582315 50.000003961696166 992.1201419779454 
1285.5593823108848 50.00000280874792 1119.3884852217057 
1553.6626262570117 50.0000017207567 1239.5654619160791 
1806.5217691924108 50.00000068973077 1353.5270257565876 
687.1508013220678 50.00000195390203 1135.429396607567 
985.6259018215846 50.00000185661702 1258.4604538411022 
1265.1738157777772 50.00000079466827 1374.6282406755126 
