VERSION .7
FIELDS x y z
SIZE 4 4 4
TYPE F F F
COUNT 1 1 1
WIDTH 321
HEIGHT 1
VIEWPOINT 0 0 0 1 0 0 0
POINTS 321
DATA ascii
2530.5557795993263 1.5545729183941148e-05 -65.52301909154266 
2510.5438066471543 1.461168812966207e-05 53.51549301504201 
2544.999985850273 148.93151751644746 -37.89705563813823 
2490.982772098337 1.3698695511266124e-05 169.87165907232247 
2544.999987102541 99.7485353111042 129.91607939097867 
2471.850227596955 1.2805699952878058e-05 283.67901008668014 
2544.99998830157 52.65652880641301 290.594771328967 
2453.125024803017 1.1931719200219959e-05 395.0633440957081 
2544.999989451123 7.507692787024098 444.6433339739933 
2529.2680340289867 1.0641526387189515e-05 559.2512197722626 
2544.999989362156 183.9335054043695 444.6123466495701 
2510.650795582861 9.815644261834677e-06 664.5640640728097 
2544.9999904871415 136.45957561365685 595.142465695435 
2492.39366067539 8.955438715929631e-06 767.8398970941007 
2544.999991568048 90.84578133454852 739.7744755845983 
2474.479363784153 8.160738616425078e-06 869.1763850334974 
2544.999992607812 46.968118260792835 878.9015686031103 
2456.8915444407394 7.3805222200462595e-06 968.6660749495918 
2544.9999936091244 4.713150843785115 1012.8834256687092 
2529.1836079486066 6.248460522328969e-06 1113.1603354795702 
2544.9999935980395 172.0236751090497 1022.8728332645455 
2511.620581201173 5.505775334313512e-06 1207.916299798132 
2544.999994582071 127.50725264705216 1154.3368329982204 
2494.346700695475 4.775316483573988e-06 1301.11226359065 
2544.9999955314465 84.5586508693259 1281.1708115707024 
2477.348310949196 4.0565082599641755e-06 1392.8219008550109 
2544.999996448317 43.080585775197505 1403.6620639426196 
2460.612400208497 3.2985017242026515e-06 1483.1154127075133 
2544.9999973346603 2.9834328745018865 1522.0752653349432 
2529.2755045385557 2.291971213708166e-06 1612.011960026185 
2512.4963263575837 1.6138355931616388e-06 1698.579472850574 
2544.9999982708805 119.44279234250007 1658.072097517224 
2495.949117676357 9.450741345062852e-07 1783.9502034233205 
2544.9999991171135 78.48435616639927 1770.9425497324714 
2479.6227794099086 2.852402758435346e-07 1868.1814143928036 
2544.999999937191 38.79184856103711 1880.3244427254613 
2813.9114224597424 49.99999974363254 1434.2956824945986 
2627.673650622911 49.99999978728465 1440.6030057351695 
2711.8482120822337 49.999999417449544 1481.8958292152493 
2794.609190374862 49.999999053523425 1522.5329910864552 
2845.00000070411 137.19265319493388 1502.2567876759285 
2349.600010340418 50.00000000844284 1404.9853854416142 
2609.6679587403214 50.00000067636938 1529.6441068214376 
2693.329932004175 50.00000031534455 1569.858231762234 
2770.337898617866 63.88888737052548 1599.999999343705 
2830.548737802076 122.12016832396876 1599.999999322301 
2152.9706830795453 50.00000005320089 1411.812295777947 
2244.1056249629473 49.999999670086254 1454.3377818853846 
2333.4888368031375 49.99999929373189 1496.1220765862613 
2421.2022183540084 49.99999892380947 1537.201283048219 
2581.1784362908147 75.59373990534732 1599.9999986603088 
2641.2369342800293 134.3640619800126 1599.9999986335147 
1951.6750290491987 50.00000009555424 1419.2383425638154 
2045.9259888546799 49.99999970878889 1462.0264540379885 
2138.273772689248 49.9999993290794 1504.0459537038305 
2228.8078260931557 49.999998956076524 1545.3346676156439 
2317.6128365803506 49.99999858945466 1585.9284538540805 
2387.1171042632063 88.19140370641799 1599.9999992736975 
1745.2323418802616 50.00000013459703 1427.4082114906168 
1842.876631845867 49.999999744117304 1470.4496256644766 
1938.4530634985626 49.9999993609963 1512.6942867243247 
2032.059576663467 49.99999898487113 1554.1818552105624 
2123.7887481271937 50.000000201616785 1594.9498697088566 
2187.5034511672457 101.89595122522405 1599.9999977048592 
1533.1306152199613 50.00000016935974 1436.476694288695 
1634.4680467839648 49.999999775109245 1479.7592215038599 
1733.5580270846417 49.99999938853671 1522.2161834052463 
1830.5080703291655 50.00000059548074 1563.8891901760471 
1921.3896038548996 57.06490063661022 1599.9999961138342 
1981.6092162312557 116.93985503574004 1599.9999960794576 
1206.8969000576449 50.00000060529692 1402.200964114455 
1314.8222541008186 50.00000019879644 1446.6103356947897 
1420.1780177194923 49.99999980073608 1490.11837815139 
1523.0899231188591 50.00000099690715 1532.7714421655924 
1623.6762990877414 50.00000061446099 1574.6132123090179 
1707.8203253620622 73.08476052521473 1599.9999944245496 
1768.615524092218 133.57766122857993 1599.9999943894832 
977.1931623809628 50.00000063247717 1413.3416976965736 
1089.719297351422 50.00000022177392 1457.9892749800551 
1199.4472174513685 50.000001406101546 1501.7031968816377 
1306.5158933341513 50.00000101256592 1544.532228323843 
1411.055880218827 50.000000626957444 1586.522245061928 
1486.0150716061903 90.956345664722 1599.999992660334 
739.6517354086936 50.00000065198219 1425.947424212813 
857.1880646977515 50.00000182327858 1470.8093167215588 
971.6743009775178 50.000001417553904 1514.704715303094 
1083.2644386289694 50.000001020544914 1557.6849366470774 
1192.102896343668 50.00000063179505 1599.7981774972686 
1254.8988949814739 110.99007475695362 1599.999990810863 
493.54751865233857 50.000000662432285 1440.2377603828786 
616.5431367154988 50.000001829517714 1485.2842796029731 
736.2103901029568 50.0000014199868 1529.3311195766478 
852.7203757588131 50.00000101954265 1572.432297802418 
949.2833739166394 71.53713831021832 1599.9999888882348 
1013.2441033414261 133.53463354980886 1599.9999888643893 
105.30164188141407 50.000002682441846 1410.165632292747 
238.09154440348993 50.00000224853102 1456.4540626227513 
367.04053172150316 50.00000182522854 1501.648655843951 
492.3528690477424 50.00000141194687 1545.8102648993486 
614.2191683820288 50.000001008140316 1588.9957534907962 
693.9852799653963 96.2447886842674 1599.999986824806 
107.8699660692755 50.0000018087685 1520.1606627317346 
239.33835352936876 50.00000139183339 1564.3925409572148 
356.72708596469283 61.18230870199841 1599.9999846358946 
424.75161405907147 124.27659324323668 1599.999984633077 
69.01029203833423 92.22494759930214 1599.9999822850841 
2368.911815581666 50.000010692701835 56.62674872055413 
2145.700119441204 50.00000984617509 47.823640274576974 
2249.1363656629937 50.000009289111404 111.50164074934673 
2350.2775264999163 50.000009774583305 173.57028305636504 
1916.363102892206 50.0000100422767 37.64267924966771 
2023.9267356227065 50.00000947229182 102.6879626990094 
2128.975085705246 50.00000891700165 166.04008947982766 
2231.6395618460915 50.0000094042789 227.78441751021728 
2332.0436302721077 50.00000887619353 288.001064946553 
1680.185975176455 50.000010252224456 26.149573623612014 
1792.2845289441575 50.00000966855896 92.63221700154372 
1901.6250804361866 50.00000910042672 157.33124714846144 
2008.353387357161 50.00000854702739 220.3384271835539 
2112.6061239751807 50.00000903622731 281.73973363955247 
2214.5116110639983 50.000008510086445 341.6158220452844 
2314.1904725819118 50.00000799656209 400.0424393283056 
2411.756237484964 50.00000749503033 457.0908079825467 
1436.3956083141902 50.000010475902855 13.408125558318716 
1553.4764673329737 50.00000987773092 81.40385267072452 
1667.5308227273986 50.000009296002645 147.51818481860028 
1778.7208624938817 50.00000872985311 211.849980847378 
1887.1983611796995 50.000008178471944 274.49169879247347 
1993.1055319005904 50.000008669720046 335.52991738675973 
2096.57579988251 50.00000814564828 395.04581264438366 
2197.7344978030283 50.000007634209396 453.11558000445984 
2296.6995024488388 50.00000713477493 509.8108269147715 
2393.5818107771006 50.00000664675554 565.1989250015404 
1306.707615134615 50.00001009966127 69.07160638267123 
1425.9393291407773 50.00000950352114 136.6749599368768 
1542.0275155280692 50.00000892387379 202.3977940810737 
1655.1412519906721 50.000008359848835 266.33974778844095 
1765.4386447260026 50.0000078106259 328.5939532095008 
1873.0677332284945 50.0000072754392 389.2475710974195 
1978.1673074322239 50.00000778218964 448.3822736887114 
2080.8676503399147 50.000007272967196 506.0746865962774 
2181.2912058625093 50.000006775760085 562.396780107295 
2279.5531910230034 50.00000628996986 617.4162338161609 
2375.762150190918 50.000005815039 671.1967637700227 
1051.1117450715115 50.00001033424087 55.704362820919414 
1176.0325331928361 50.000009722798495 124.87616617426647 
1297.49943067582 50.00000912884934 192.06141888470393 
1415.7013980471797 50.00000855144299 257.3677355948357 
1530.8147670745402 50.000007989696314 320.8955092041415 
1643.0043066367184 50.0000074427835 382.73851956843737 
1752.4241833849742 50.00000690992874 442.9844820848275 
1859.218828553836 50.00000741902841 501.71554203732103 
1963.5237249920401 50.0000069121661 559.0087264225053 
2065.466114382267 50.000006417322766 614.936344035305 
2165.165644930574 50.00000593389814 669.5663576680272 
2262.7349572679286 50.00000546132833 722.9627179334784 
2358.2802184778684 50.00000499908583 775.1856680546675 
785.7402413699238 50.00001058139242 41.37207977986236 
916.917205882588 50.00000995368373 112.19790854856274 
1044.294070786445 50.00000934455511 180.9222568288369 
1168.082712881475 50.00000875297337 247.66161927583107 
1288.4804248265473 50.00000817798082 312.5244529736128 
1405.6711761624979 50.00000761868159 375.6118719012911 
1519.8267466146995 50.0000070742426 437.0182710419713 
1631.1077465550356 50.00000654388077 496.83188833060194 
1739.6645369262183 50.000007055486094 555.1353106190859 
1845.6380637004836 50.0000065511349 612.0059355496583 
1949.1606071410447 50.00000605880541 667.5163805121779 
2050.3564673261103 50.0000055778919 721.7348624671881 
2149.342583793248 50.000005107828656 774.7255384842783 
2246.2290998513 50.000004648079994 826.5488163929003 
2341.1198767560686 50.00000419814205 877.261637809665 
509.549235080955 50.000010841067706 26.146801452844556 
647.613318440357 50.00001019604497 98.71887116287598 
781.489724830853 50.00000957078646 169.0646658511505 
911.4168303977613 50.000008964169865 237.31059241523326 
1037.616109710687 50.000008375149264 303.5740860611386 
1160.2936343729198 50.000007802756954 367.96440556017023 
1279.6414158055036 50.00000724608981 430.5833458060242 
1395.838610823197 50.000006704301995 491.52587755233253 
1509.0526061218193 50.0000061766068 550.8807228852847 
1619.4399950117836 50.00000669088604 608.7308729244296 
1727.1474625461583 50.00000618921149 665.1540598233278 
1832.3125796715522 50.00000569955591 720.223174649444 
1935.064529096967 50.00000522130995 774.006654858973 
2035.5247608965383 50.00000475390425 826.568831560417 
2133.8075890662017 50.00000429679858 877.9702460224003 
2230.0207346388597 50.00000384948726 928.2679378164726 
2324.2658209027823 50.00000341149371 977.5157075373968 
2416.638825622128 50.00000298236682 1025.764356700622 
508.0732975128499 50.00000980735331 156.57719004967475 
644.7520507873919 50.000009184765986 226.40834145503777 
777.326248605862 50.000008580876965 294.14241612654223 
906.0274860338095 50.000007994628504 359.8977393320147 
1031.0710848062186 50.000007425041986 423.78432205938225 
1152.65752386316 50.00000687120337 485.9045918980273 
1270.9737224063774 50.000006332259545 546.3540485709491 
1386.1941929500604 50.00000580741835 605.2218530450746 
1498.4820788281418 50.000006324554306 662.5913570389325 
1607.9900934646785 50.00000582573284 718.5405851887112 
1714.8613624612285 50.000005338922165 773.1426618640144 
1819.230192493194 50.000004863512004 826.4662062873608 
1921.2227652357715 50.00000439892483 878.5756865011808 
2020.9577682554632 50.00000394462131 929.531741699408 
2118.5469689158017 50.000003500093044 979.3914754442112 
2214.0957372526127 50.00000306485799 1028.208722810533 
2307.7035230752335 50.00000263846414 1076.034294143994 
2399.4642919422686 50.00000222048402 1122.9161978072166 
506.6276186327286 50.00000879483105 284.3335817800298 
641.9485521656193 50.00000819390425 351.5197596783464 
773.2455913662211 50.00000761065803 416.73214634178476 
900.7438050125174 50.0000070440974 480.0814458976547 
1024.6525878996 50.00000649330286 541.6706615554799 
1145.1670269782858 50.00000595741221 601.5957670370112 
1262.46912784412 50.0000054356251 659.9463093796276 
1376.728917985674 50.00000492719391 716.8059511771598 
1488.1054403471226 50.000005460035936 772.2529583630826 
1596.747653754369 50.000004976255696 826.360645008328 
1702.795240563869 50.00000450385869 879.1977669617395 
1806.379345006886 50.00000404226466 930.8288870005908 
1907.623239929876 50.000003590932465 981.314702011909 
2006.6429334618483 50.00000314934732 1030.7123412113106 
2103.547721293763 50.00000271703175 1079.0756376366285 
2198.4406902125393 50.00000229352736 1126.455375689426 
2291.4191778747954 50.00000187840669 1172.8995171743827 
2382.575193233099 50.000001471263204 1218.4534080053018 
505.21073054893714 50.00000780247319 409.5456960055035 
639.2000296260389 50.00000722247478 474.177766454226 
769.2437614329283 50.000006659181054 536.9537731728856 
895.5607088578454 50.000006111660696 597.9772281836254 
1018.3545530681904 50.000005579047865 657.3445152778881 
1137.815178674277 50.00000506053493 715.1455065011442 
1254.1198465953635 50.000004555366104 771.4641161640575 
1367.4342493292265 50.00000509145411 826.3787987790424 
1477.9134663483142 50.00000461090258 879.963002555895 
1585.7028204218182 50.000004141709724 932.2855706738173 
1690.9386596436716 50.0000036832962 983.4111129139624 
1793.7490630828656 50.00000323511267 1033.4003385067367 
1894.2544823111525 50.000002796648005 1082.3103592466437 
1992.5683249448539 50.000002367420166 1130.1949652287403 
2088.797486260411 50.00000194697077 1177.1048760685958 
2183.042834232001 50.000001534868716 1223.0879701317676 
2275.39965272085 50.00000113071019 1268.1894940066113 
2365.95804700669 50.000000734106834 1312.452254199673 
503.8212452867806 50.000006829308404 532.3361897289069 
636.5038407676693 50.00000626954079 594.5002839146382 
765.3169802123225 50.00000572554745 654.9208118577485 
890.4733876478381 50.00000519645437 713.6944936742607 
1012.171232227487 50.000004681447535 770.9114563305343 
1130.5953756087042 50.00000417976753 826.6557993115957 
1245.9184931988311 50.00000471932253 881.0061025821619 
1358.3020882555352 50.00000424220798 934.0358886405411 
1467.897400153472 50.00000377642482 985.8140312781761 
1574.8462329721328 50.00000332138825 1036.4051335466802 
1679.2817025877262 50.000002876548024 1085.869866124352 
1781.328915295605 50.00000244139028 1134.2652751822357 
1881.1055845905348 50.000002015429345 1181.645062222039 
1978.7225926150668 50.000001598208655 1228.0598388376175 
2074.2845020162695 50.00000118929711 1273.5573590026906 
2167.890023282045 50.000000788284524 1318.182731184164 
2259.632442045842 50.00000039479073 1361.9786123164222 
502.4578490215099 50.000005874415365 652.8211672330995 
633.8574829397667 50.00000533421826 712.598997573361 
761.4616670011424 50.00000480890503 770.7408326776108 
885.4772809689598 50.00000429765714 827.3369744836332 
1006.0971727069696 50.00000379970788 882.4716320496873 
1123.5013499739875 50.0000043429618 936.2234393378417 
1237.8580572231122 50.00000386951524 988.6659256205112 
1349.3247393079214 50.000003407360055 1039.8679315241807 
1458.0489196989615 50.00000295591053 1089.8939931296586 
1564.1689917152326 50.000002514617336 1138.8046856627352 
1667.8149366197158 50.000002082962965 1186.656935923017 
1769.1089757390623 50.00000166046266 1233.5043060425132 
1868.1661636046283 50.00000124665439 1279.397251616078 
1965.094928278082 50.000000841111614 1324.383356883257 
2059.9975643011376 50.00000044342232 1368.5075493266168 
501.11929678836213 50.00000493692369 771.1106475602869 
631.2585833301046 50.000004415670446 828.5797986551047 
757.6744250287743 50.00000390844889 884.5158802710116 
880.5680604094728 50.0000034144914 939.0031255646372 
1000.12719582315 50.000003961696166 992.1201419779454 
1116.5271492167522 50.000003492155884 1043.9403897165298 
1229.9318730119526 50.0000030338615 1094.53260480678 
1340.494885224064 50.0000025862264 1143.9611890673882 
1448.360107707806 50.000002148697604 1192.2865588745622 
1553.6626262570117 50.0000017207567 1239.5654619160791 
1656.5293802969918 50.00000130191893 1285.8512646455515 
1757.0797896928716 50.000000891724085 1331.1942135693344 
1855.4263252937344 50.00000048973925 1375.641673122445 
499.8044076235983 50.000004016003004 887.308993905086 
628.7048898543003 50.00000351309882 942.5431906768622 
753.9520286187585 50.00000302340959 996.3428593235872 
875.7416134460782 50.000002546215 1048.7864912269133 
994.2563810890065 50.00000310945961 1099.9473901541355 
1109.667109866964 50.00000265527524 1149.894110287376 
1222.1335988733326 50.00000221169557 1198.6908434302668 
1331.805560450301 50.000001778162186 1246.3977766895478 
1438.8234241550267 50.000001354160304 1293.071412431168 
1543.319066397823 50.0000009391988 1338.7648591557017 
1645.4164730137404 50.00000053282383 1383.52809568473 
498.5120600953969 50.00000311087206 1001.5153085540846 
626.1942627702651 50.00000262575031 1054.5846636684705 
750.2914113641705 50.00000215306045 1106.3138897992271 
870.9940277617798 50.000002720746124 1156.776042123542 
988.4800438901807 50.00000227093915 1206.0394017219055 
1102.9158407509908 50.00000183166685 1254.167868051507 
1214.457194377746 50.000001402376256 1301.2213209447777 
1323.2501273338235 50.000000982548954 1347.2559442571414 
1429.4316808173576 50.000000571696546 1392.324519833745 
497.24118818791794 50.000002220780516 1113.8237966171291 
623.7246669499568 50.00000175290188 1164.7950390607366 
746.6896543620746 50.000002325323294 1214.5166337532014 
866.3215808670434 50.00000188017475 1263.0564902197934 
982.793722511532 50.000001445484486 1310.478123478737 
1096.268203857799 50.00000102069953 1356.8410198985648 
495.9907775056331 50.00000134502079 1224.3241014541186 
621.2941638579746 50.00000192249081 1273.2607871747146 
743.143979584825 50.00000148230174 1321.0346010432668 
861.7207224502113 50.00000105248364 1367.7085719200977 
494.75986176851984 50.0000004829144 1333.1016143997908 
618.900908519844 50.00000107662527 1380.0643244401112 
