VERSION .7
FIELDS x y z
SIZE 4 4 4
TYPE F F F
COUNT 1 1 1
WIDTH 425
HEIGHT 1
VIEWPOINT 0 0 0 1 0 0 0
POINTS 425
DATA ascii
2500.830842248397 1.6115850485221017e-05 -135.52212382077414 
2544.9999847940944 99.85860162589142 -185.65967000353885 
2483.3805105789843 1.5285009794752114e-05 -29.65813544415687 
2544.9999859256814 57.02400226221471 -33.90807233902251 
2466.2807874226683 1.4470862879534252e-05 74.07885521926619 
2544.999987013902 15.83098617149335 112.02783221592381 
2449.516256731421 1.3672673958353698e-05 175.78237099532998 
2534.5687743552417 1.3261306776257697e-05 228.59781935213778 
2544.9999868983396 174.52176384514587 107.14159385344192 
2517.597013498301 1.2439043530321214e-05 327.0080404592327 
2544.999987963709 131.52467209371025 249.82960682297744 
2500.939294579666 1.1681362593662925e-05 423.59729909729776 
2544.9999889901264 90.09964512699753 387.3006436842652 
2484.5821430583214 1.0937354090856388e-05 518.4437271463175 
2544.9999899799795 50.150302563924924 519.8745475826345 
2468.512742645029 1.0206433216808364e-05 611.621639455896 
2544.999990935469 11.58786197687914 647.8459474724332 
2452.7188929541094 9.488046089245472e-06 703.2017795782212 
2533.7562402993763 9.136222615779843e-06 748.7643322898239 
2544.9999908816853 162.9471924915697 650.9012117591383 
2517.749709844648 8.439018529315945e-06 837.6869826922921 
2544.9999918205312 122.62535435798236 776.4762639967807 
2502.0016981042936 7.753075806249399e-06 925.1734586954503 
2544.9999927282006 83.64245668153126 897.8814290062974 
2486.5014024036764 7.027624633337837e-06 1011.2837736254023 
2544.9999936064796 45.92182062086795 1015.3555091328549 
2471.23850287714 6.362810381688178e-06 1096.0752581113652 
2544.9999944570236 9.392384428760124 1129.1198133006892 
2544.9999935965693 193.41081436484637 1024.142494601041 
2456.2031330960904 5.707908712793142e-06 1179.602724259853 
2533.6054570807064 5.405632691690698e-06 1219.1486907834956 
2544.9999944616748 153.938535873207 1139.695046955549 
2518.3524025216166 4.768035978486296e-06 1300.507887223498 
2544.9999952999365 115.69099107457623 1251.6622703250227 
2503.3127632382975 4.139361408306286e-06 1380.728734929649 
2544.999996112826 78.60114721790706 1360.240398769677 
2488.477693647853 3.519236997817643e-06 1459.858415895149 
2544.9999969017094 42.60664037114839 1465.6119986829126 
2473.838707730917 2.9073098630760796e-06 1537.9421942153836 
2544.99999766786 7.649372086574658 1567.947149527562 
2459.387657920439 2.303238943568431e-06 1615.0235286943393 
2533.467501046749 1.9924045773223042e-06 1649.517276265457 
2445.116715369898 1.6563972167205065e-06 1691.144178249799 
2518.7934742405996 1.4025936252437532e-06 1724.8146051968397 
2544.999998484977 109.08032334483869 1686.6282796137207 
2504.2953460398453 8.198539944714867e-07 1799.2093396785872 
2544.999999221022 73.4551034696924 1784.801819743207 
2489.9657204691803 2.438873707433231e-07 1872.739430928369 
2544.999999937191 38.791848561036204 1880.3244427254617 
2795.6442336753444 49.99999992350695 1412.7746153655803 
2844.9999999929823 113.54111248636218 1403.4135727935818 
2632.2178424210806 49.99999996322549 1418.1312304899711 
2706.062350494127 49.999999637326255 1454.539388340741 
2778.8150141995557 49.99999931604361 1490.4347038862056 
2844.9999993716583 65.26916985115258 1515.1543119363555 
2616.3884676449998 50.00000093657127 1496.4100858234447 
2689.8384809594236 50.000000617488695 1531.9836456189505 
2762.2075813224683 50.00000030280444 1567.0713324455692 
2832.6332013645665 52.48116313863011 1599.999999889862 
2296.8921376609696 49.999999839562406 1429.6216078005514 
2374.704726249247 49.99999950848178 1466.4313120527931 
2600.7648982958135 50.000000331663614 1573.6712038695741 
2668.8556728288295 62.37575613167155 1599.9999986133776 
2721.3702964992854 113.4551146172289 1599.99999938551 
2124.4243192856534 49.99999987629508 1435.9280309965825 
2204.4606702248557 49.99999954254963 1472.9327903260141 
2283.1382623043414 49.99999921396375 1509.3730209793957 
2360.512833475342 49.99999889031824 1545.2729275579463 
2553.9959578790617 124.37273609235126 1599.999998074601 
1864.3936408422455 50.00000025295776 1404.9274243354002 
1948.3513555181066 49.99999991090408 1442.730844245199 
2030.784994721615 49.99999957444834 1479.9252290509494 
2111.7577887078337 49.99999924334861 1516.5370169707903 
2191.3299593580346 49.99999891737298 1552.5914150969343 
2269.558907601178 50.00000018252376 1588.1124760248013 
2330.281926416861 84.1165964709553 1599.9999988902728 
1681.6966721003564 50.00000028778868 1412.1223574708774 
1768.3520949311023 49.999999942773684 1450.1280973342264 
1853.3682789302165 49.99999960357036 1487.5052005916973 
1936.813762691655 49.99999926992405 1524.2812481398528 
2018.7537412809274 49.99999894159282 1560.4825053552413 
2099.2502778302423 50.000000204567186 1596.1340053529634 
2154.6232266979555 96.24671636189578 1599.9999975091505 
2207.2608243371337 148.60912903520966 1599.9999974788952 
1494.526598786826 50.00000031926629 1420.0239913512505 
1584.0872314822245 49.99999997124996 1458.2238485059315 
1671.8842504230483 49.99999962926631 1495.7750412421124 
1757.992093887015 49.99999929304886 1532.7063572150764 
1842.481477703504 50.00000054856537 1569.045176674198 
1921.3896038548996 57.06490063661022 1599.9999961138342 
1974.0663853992678 109.42357515305503 1599.999996083895 
1302.5083010373519 50.00000034667937 1428.745269737436 
1395.1971498979933 49.999999995632606 1467.129006149809 
1485.9877721963358 49.99999965084589 1504.84365988334 
1574.9611707128088 50.00000089826335 1541.919290460758 
1662.1942025118692 50.00000056517729 1578.3844567376104 
1734.9463370611306 70.98700737757099 1599.999994639611 
1788.0575396714798 123.81842105075884 1599.9999946091002 
1105.2422510918927 50.00000036927304 1438.4072421602373 
1201.2995602942942 50.0000000151731 1476.9622562111954 
1295.3126385093483 50.000001253793016 1514.8274256930663 
1387.3698090131502 50.00000091239872 1552.0341544490707 
1477.554758496893 50.0000005769316 1588.6122338782106 
1542.294883963446 86.29847408585101 1599.9999931089556 
1595.9804871299548 139.61799025419987 1599.9999930787753 
800.3115321061073 50.00000075045955 1409.6836412378789 
902.3017002540655 50.00000038622602 1449.1401384122182 
1001.9868891334527 50.00000161528533 1487.851087791013 
1099.4691577301464 50.00000126487066 1525.8511542570263 
1194.8449935586273 50.00000092089249 1563.1731485527102 
1288.205702065473 50.00000058305977 1599.848160473262 
1342.7328740281728 103.20283458425729 1599.999991515117 
587.1480749964221 50.000000764218385 1421.4677919194914 
693.2295550536173 50.0000019828758 1461.0845650048796 
796.8233976284037 50.00000162265951 1499.932939286341 
898.0414730945299 50.0000012694436 1538.049189838031 
996.9894031673416 50.00000092290338 1575.467608733285 
1080.1453911171188 67.9654533013072 1599.9999898737992 
1135.47228129112 121.92500884613764 1599.9999898505484 
367.04053115551187 50.00000235669813 1434.6378041576263 
477.53490389943636 50.000001985819836 1474.3928498627392 
585.3419677791676 50.00000162256947 1513.3564661892683 
690.5846060938852 50.00000126658415 1551.5666227631505 
793.3786713582108 50.0000009175219 1589.0591614451273 
863.1443262243347 88.20126506176803 1599.9999881259746 
919.6253779648459 142.7150835145203 1599.999988106771 
21.12434452587968 50.00000273688238 1408.639953037899 
139.43166642918914 50.000002354391654 1449.3636034131969 
254.68912029113199 50.00000198022917 1489.230540851911 
367.04053194646394 50.0000016139893 1528.2829738926303 
476.6211634332308 50.000001255286406 1566.5606444001119 
578.3068112681763 56.01266940200185 1599.9999862977206 
636.3327233577043 110.7638720459463 1599.9999862879336 
24.12150578677756 50.000001964962394 1505.778107236932 
141.37807241674454 50.000001595799404 1544.8880228396984 
255.637664574655 50.00000123445534 1583.202068701054 
338.81360529951235 80.6049188161387 1599.9999843508176 
398.54042200025197 135.9673768686389 1599.9999843486253 
24.625905565480934 52.45683483600715 1599.999982275824 
86.71017864113401 108.17103911811955 1599.9999822880868 
2249.6390227523043 50.000010057780855 14.551364290556194 
2338.9999786514313 50.00000957003158 70.38233898547605 
2051.1897525293075 50.00001022651941 5.8615631283328185 
2143.589396207911 50.00000972891212 62.74272563094928 
2234.1388523126375 50.000009242455235 118.33535645958727 
2322.9228676088937 50.00000979527613 172.69603551177806 
2410.021735343918 50.00000932967214 225.87831476019164 
1943.4973229140596 50.00000989836008 54.06761118024315 
2037.192558955102 50.00000940209247 110.69776972267664 
2128.975085705246 50.00000891700165 166.04008947982766 
2218.9325775352195 50.000009471207704 220.1515164098737 
2307.1480551853415 50.000009007007975 273.0859272491907 
2393.7002042192817 50.00000855257622 324.8943342835164 
1738.2488414566246 50.00001007825813 44.40183156188414 
1835.3598700977332 50.000009571678675 102.11558534668438 
1930.397862128134 50.00000907682988 158.4817586765539 
2023.458786182552 50.00000859318061 213.56100670441901 
2114.6333770022943 50.00000914885368 267.410635218017 
2204.007505733402 50.000008686134606 320.0848391453392 
2291.6625145910743 50.00000823319624 371.634911668968 
2377.6755298129447 50.00000778961294 422.1094461352304 
1527.3356374813566 50.000010268516235 33.789165466402665 
1628.1552470832362 50.0000097510856 92.63579928955278 
1726.7267990878108 50.000009245981346 150.07092299618762 
1823.1555960753076 50.00000875263686 206.15924643562175 
1917.5410451334446 50.000008270516446 260.96182315821625 
2009.977079864996 50.000008827735655 314.5363106317209 
2100.5525499074806 50.000008366580914 366.93721359754363 
2189.3515727730023 50.000007915216884 418.21609760552474 
2276.453862610705 50.00000747321792 468.4217947574589 
2361.935029892961 50.00000704018021 517.6005882028667 
1310.2114230287807 50.00001046906618 22.27273111307204 
1415.058090596624 50.00000994020775 82.30495529368909 
1517.46512046095 50.00000942431325 140.8571789989046 
1617.548340646883 50.00000892077787 197.99855359168487 
1715.4169229504855 50.00000842903046 253.79422980334766 
1811.173869549994 50.000007948529856 308.3056495374549 
1904.9164580059673 50.000007478768566 361.59081269835497 
1996.7366481908225 50.00000804788306 413.7045205327295 
2086.7214582435763 50.00000759818158 464.69860355658966 
2174.9533041452664 50.00000715785245 514.622121289266 
2261.5103174310775 50.00000672648912 563.5215552158447 
2346.466634866827 50.00000630370323 611.4409817423125 
1086.286778189501 50.00001067986523 9.895400214268193 
1195.507985893446 50.000010138955986 71.16958389495449 
1302.0792811088827 50.00000961169917 130.8903000208038 
1406.1283866464973 50.0000090974454 189.13157421803498 
1507.77549224944 50.000008595581676 245.9630455234137 
1607.1338167449767 50.00000810553047 301.45029323269046 
1704.3101210353093 50.0000076267479 355.6551351489188 
1799.4051768878817 50.00000715872011 408.63590011579436 
1892.514195327884 50.00000772958083 460.44767642631905 
1983.7272221254707 50.00000728163559 511.1425441930214 
2073.129494829249 50.00000684306815 560.7697791330529 
2160.8017765432132 50.00000641346833 609.3760490314171 
2246.8206600799226 50.00000599244686 657.0055898621331 
2331.258848634383 50.00000557963358 703.700368867173 
2414.185414574694 50.000005174679245 749.5002349004553 
968.8993328043925 50.000010347262105 59.27666829233203 
1079.9940237067844 50.00000980802815 120.22072351850784 
1188.3485757968342 50.00000928248937 179.61178741944605 
1294.095638635019 50.0000087699882 237.52442484069888 
1397.3599662698243 50.000008269907084 294.02874744782 
1498.2590105237805 50.000007781659406 349.1907479910915 
1596.9034619960553 50.000007304700375 403.07260510110063 
1693.3977440951112 50.00000683850885 455.7329616096531 
1787.8404641885254 50.000007411217666 507.2271780916626 
1880.3248297790133 50.000006965126886 557.6075697307583 
1970.9390240293073 50.00000652841845 606.9236141961792 
2059.766556530872 50.00000610067764 655.2221516377908 
2146.8865827652935 50.00000568151427 702.5475639963324 
2232.374198712294 50.00000527055727 748.9419409099273 
2316.3007123191433 50.000004867450116 794.4452325758703 
2398.733893942126 50.000004471863576 839.0953907570479 
734.5752501580137 50.00001056507699 46.67414585541883 
850.5867854474691 50.00001001320379 108.9000756450132 
963.6180828271999 50.00000947577246 169.49404740232603 
1073.815916203299 50.000008952075405 228.53604228748736 
1181.3180935256182 50.00000844144779 286.1011460456857 
1286.254145243834 50.0000079432657 342.2599246814525 
1388.7459506878981 50.000007456939784 397.0787662522671 
1488.9083088212174 50.00000698191525 450.62019230070473 
1586.8494590611367 50.00000651767368 502.943142032972 
1682.6715565622094 50.00000709233791 554.1032310482101 
1776.4711103092063 50.00000664820891 604.1529927403931 
1868.3393782298485 50.00000621346135 653.1420902973564 
1958.3627359380162 50.00000578768322 701.1175202487611 
2046.6230123840082 50.00000537047708 748.1237949794267 
2133.197799187853 50.00000496147095 794.2031114713986 
2218.160735499267 50.00000456031012 839.3955066866561 
2301.5817706308108 50.000004166656254 883.7390008164398 
2383.5274064789155 50.000003780191946 927.269729496637 
491.820623068274 50.0000107923679 33.41145535974465 
613.1813380856797 50.00001022714241 96.9817433304861 
731.2965869421732 50.0000096771646 158.83517390626002 
846.3291961673003 50.00000914167322 219.0576958102347 
958.4317827324617 50.00000861995068 277.72986395875523 
1067.7475557367384 50.0000081113285 334.92726289503116 
1174.4110441022108 50.00000761517276 390.7208911391017 
1278.5487581392567 50.00000713089139 445.1775106060504 
1380.2797919028526 50.00000665792504 498.35996474824515 
1479.7163724458046 50.00000619574985 550.3274686467967 
1576.964360698581 50.00000677248772 601.1358729686481 
1672.123712783929 50.00000633043146 650.8379099328031 
1765.2888958809704 50.000005897757546 699.4834094499279 
1856.5492759847589 50.0000054740467 747.119506233294 
1945.989470678176 50.00000505890421 793.7908255188722 
2033.6896740277407 50.00000465195353 839.5396546413949 
2119.7259555866403 50.00000425283906 884.4061009322427 
2204.170535897098 50.00000386121974 928.4282372026473 
2287.0920406355635 50.00000347677542 971.6422359443927 
2368.5557353243985 50.00000309920142 1014.0824932640662 
490.68763364269716 50.00000988654665 147.6946029839246 
610.976590864776 50.00000933861702 209.15197059171624 
728.0768553159269 50.00000880521202 268.9801889547489 
842.1471658844052 50.00000828561042 327.26036006637514 
953.336387247115 50.00000777913192 384.06854104259037 
1061.7842793279106 50.00000728513987 439.476137249404 
1167.6221962774357 50.00000680303765 493.55025942174143 
1270.9737224063774 50.000006332259545 546.3540485709491 
1371.955251622197 50.00000587227805 597.9469720273878 
1470.6765161536596 50.00000542259204 648.3850935734481 
1567.2410690109828 50.00000601134889 697.7213193696048 
1661.74672875973 50.000005580865945 746.0056274750664 
1754.2859804775626 50.00000515933971 793.285269283524 
1844.9463500976267 50.000004746372724 839.6049630598354 
1933.810745060408 50.000004341585736 885.0070674141757 
2020.9577682554632 50.00000394462131 929.531741699408 
2106.462007108651 50.00000355514021 973.2170937099268 
2190.394300096267 50.00000317281956 1016.0993158475881 
2272.8219827319513 50.00000279735286 1058.212810799972 
2353.8091148636963 50.00000242844726 1099.5903076697168 
489.575033933781 50.00000899702627 259.92106680632423 
608.810990003637 50.00000846586954 319.3305608844703 
724.9135446830246 50.00000794854077 377.1950769359719 
838.037484891599 50.000007444357834 433.59111393087096 
948.328045041158 50.00000695267681 488.59045422799863 
1055.9216458082865 50.00000647289562 542.2605284477427 
1160.9465657476853 50.00000600444491 594.6647471787815 
1263.5235527759078 50.000005546793545 645.8628029904485 
1363.7663817272514 50.00000509943493 695.9109458135376 
1461.7823627691882 50.00000569051463 744.8622334956144 
1557.6728097209234 50.00000526234817 792.7667653464096 
1651.5334620537806 50.00000484312659 839.6718872273295 
1743.4548785148422 50.00000443245244 885.6223882107329 
1833.5227951398842 50.00000402994556 930.6606768623092 
1921.8184549749549 50.000003635246685 974.8269441110792 
2008.4189115044137 50.000003248013854 1018.1593131353693 
2093.397308214463 50.000002867924195 1060.693977464386 
2176.8231364687526 50.00000249466848 1102.465328370352 
2258.7624736492858 50.00000212795567 1143.5060725158555 
2339.278203318079 50.00000176750655 1183.8473407234028 
2418.43021897944 50.00000141305554 1223.518788647445 
488.4819550528773 50.00000812311282 370.1784904778515 
606.6828724079392 50.00000760822604 427.60212693287576 
721.8042647938246 50.00000710650147 483.5616068026311 
833.9970960673022 50.00000661728882 538.1290550375415 
943.4030863940029 50.00000613998145 591.3721889799431 
1050.155421782711 50.00000567400821 643.3546568796537 
1154.3793995995757 50.000005218828846 694.1363458722849 
1256.193016714397 50.00000477393951 743.773662593565 
1355.7075054342004 50.00000536747848 792.3197883417611 
1453.027826758389 50.00000494175947 839.824916619214 
1548.2531146626948 50.00000452497443 886.3364618433625 
1641.4770901121829 50.00000411672045 931.8992590924299 
1732.7884374271202 50.00000371661554 976.5557431580937 
1822.2711506736532 50.00000332430045 1020.3461138487974 
1910.004852231103 50.000002939433216 1063.3084880228698 
1996.0650861229751 50.000002561685505 1105.4790395856398 
2080.5235884280673 50.00000219075264 1146.892128555574 
2163.448536848835 50.00000182633903 1187.580420190398 
2244.9047813023826 50.000001468166374 1227.5749950630839 
2324.9540572117226 50.00000111596819 1266.9054508880863 
2403.655183008212 50.000000769491635 1305.5999968186547 
487.40756979536354 50.00000726414601 478.55031303665237 
604.5906540698261 50.000006765051694 534.047257803737 
718.7467380927164 50.000006278477485 588.1576923146481 
830.0230852228501 50.000005803806744 640.9495828828954 
938.5580117621453 50.000005340469215 692.4867792420487 
1044.481568611382 50.000004887918294 742.8293284605775 
1147.916161877154 50.00000444564648 792.0337607519805 
1248.9771179835507 50.000005041790246 840.1533492006483 
1347.7732033408865 50.00000461866148 887.2383512512197 
1444.4070922276137 50.00000420444758 933.3362209908955 
1538.9758023672894 50.00000379874655 978.4918119287395 
1631.5710906968352 50.00000340117458 1022.7475587655708 
1722.2798173663346 50.00000301137061 1066.14364507735 
1811.1842802888564 50.00000262898902 1108.7181574427173 
1898.3625229966547 50.00000225370604 1150.5072272838106 
1983.8886182697133 50.00000188521153 1191.5451615558268 
2067.832929746238 50.0000015232099 1231.8645633027581 
2150.2623534978943 50.00000116742558 1271.4964429922993 
2231.240541351787 50.000000817587534 1310.4703214505294 
2310.828107562846 50.00000047344656 1348.8143251347979 
2389.0828202819644 50.0000001347571 1386.5552744104475 
486.3510899887174 50.00000641949373 585.1160364046304 
602.5328250638695 50.00000593573532 638.7427734957291 
715.7387926247075 50.00000546387946 691.0576347005576 
826.1126721503556 50.000005003344995 742.1246304468787 
933.789481171123 50.00000455358622 792.003928821809 
1038.8962303245085 50.00000411409201 840.7521465135051 
1141.5525201767582 50.00000368437759 888.4226139003376 
1241.8710850281836 50.00000429260581 935.0656160785256 
1339.9582934743294 50.00000388111039 980.7286173233579 
1435.9145991026335 50.00000347810419 1025.4564581527547 
1529.8349606173806 50.0000030832025 1069.29154408339 
1621.8092236733833 50.00000269604152 1112.274014757656 
1711.922472298847 50.00000231627837 1154.441900098714 
1800.2553520761958 50.00000194358381 1195.8312639302258 
1886.884367706909 50.00000157765044 1236.4763362268486 
1971.8821573115174 50.00000121818175 1276.409635039544 
2055.3177455730624 50.00000086489945 1315.6620790319216 
2137.2567776172928 50.00000051753614 1354.2630914683773 
2217.7617353322944 50.00000017583898 1392.2406964101856 
485.3117640344817 50.000005588554814 689.9514733259666 
600.5079449062846 50.00000511969847 741.7619610468078 
712.7783554533862 50.00000466214897 792.3323478248099 
822.2632023116225 50.00000421535697 841.7228792276546 
929.0943043621323 50.000003778809514 889.9902170262476 
1033.3957223912726 50.0000033520173 937.187708672885 
1135.2843324133614 50.0000039631459 983.3656321673125 
1234.8703529507206 50.000003554522664 1028.5714238126175 
1332.2578196038667 50.000003154361366 1072.8498782622578 
1427.5450269891157 50.00000276227456 1116.2433397779614 
1520.824930199854 50.000002377898454 1158.7918735934995 
1612.1855140426665 50.000002000888344 1200.533424014633 
1701.7101323861443 50.00000163091681 1241.5039597386203 
1789.4778204196386 50.000001267672815 1281.7376075900384 
1875.5635823245202 50.00000091086349 1321.2667757436234 
1960.0386566002467 50.00000056020599 1360.1222673935317 
2042.9707610573587 50.00000021543565 1398.3333857299167 
484.2888746275512 50.000004770759006 793.1289774194579 
598.5146382465618 50.00000431638637 843.1747937300565 
709.8634465470818 50.000003872747584 892.0495673385576 
818.4721391142662 50.000003439325155 939.809959083359 
924.4694316302916 50.0000030156325 986.509289863593 
1027.9765204769183 50.000003629827916 1032.1977892208747 
1129.1076383007148 50.00000322424148 1076.9228262703632 
1227.9705538490934 50.000002827082426 1120.7291126174132 
1324.667036963488 50.0000024379633 1163.658896006867 
1419.2932807774637 50.000002056522135 1205.7521338187707 
1511.9402897586779 50.000001682409675 1247.046653013258 
1602.6942361150946 50.000001315300324 1287.5782970548116 
1691.6367875460528 50.000000954883944 1327.3810610433497 
1778.8454090025516 50.00000060086313 1366.487216149345 
483.2817366378049 50.00000396555515 894.7176568561795 
596.5515908635693 50.00000352526695 943.0481347585505 
706.9921730941064 50.000003095163265 990.2740451516147 
814.7370567262697 50.00000267475389 1036.448634142766 
919.911944477079 50.00000329219529 1081.6220371805225 
1022.6352538934871 50.00000288981664 1125.8415130129924 
1123.0186439278082 50.000002495828085 1169.151649334799 
1221.1675043006558 50.00000210984035 1211.5945586940607 
1317.1813996076576 50.00000173148874 1253.2100539941157 
1411.1544772147504 50.00000136042854 1294.0358101641336 
1503.175841659693 50.00000099632962 1334.1075125756797 
1593.3298987365142 50.00000063888183 1373.4589934630458 
482.2896951404932 50.00000317242211 994.7835730307975 
594.6175459408396 50.000002745837264 1041.4459267861798 
704.1627242116392 50.00000232890579 1087.0677304382052 
811.055632539169 50.000002949783266 1131.6989751181968 
915.4190509458244 50.000002550797035 1175.386761776721 
1017.3686917640853 50.00000216015542 1218.1755093930956 
1117.0137147583555 50.00000177747006 1260.107152980569 
1214.457194377746 50.000001402376256 1301.2213209447777 
1309.7965486099174 50.000001034526576 1341.555498339715 
1403.123932366509 50.00000067359451 1381.1451766448554 
481.3121235831177 50.000002390855116 1093.3899254668968 
592.7113005981114 50.00000197761074 1138.4293683717624 
701.373366016082 50.00000157350587 1182.4899382771132 
807.4256443122617 50.000002206723366 1225.618523949836 
910.9880732939732 50.000001819616045 1267.8593290271097 
1012.1737377388586 50.00000144041405 1309.2540639367276 
1111.0893654553574 50.00000106875268 1349.8421289347834 
1207.8357773897555 50.0000007042845 1389.6607779837796 
480.3484220776081 50.00000162037941 1190.5972240819692 
590.8317026582608 50.00000122012352 1234.0570784665047 
698.6224361539589 50.00000185713088 1276.5975061487266 
803.8449592819811 50.00000147375613 1318.2624394478107 
906.6164443545676 50.000001098228495 1359.0933145842205 
1007.0474212989202 50.00000073018418 1399.1292561358218 
479.3980158076879 50.00000086053387 1286.4634498349724 
588.9776467335523 50.00000150154756 1328.3852491231332 
695.9083429962398 50.000001122113645 1369.4449438863712 
478.4603526193646 50.00000113949318 1381.044203933628 
